# .PCD v0.7 - Point Cloud Data file format
VERSION 0.7
FIELDS x y z rgb
SIZE 4 4 4 4
TYPE F F F F
COUNT 1 1 1 1
WIDTH 1101
HEIGHT 1
VIEWPOINT 0 0 0 1 0 0 0
POINTS 1101
DATA ascii
-0.05632028 0.073866732 0.20105812 3753309
0.25621063 -0.17006308 1.0434312 3753309
-0.059560537 0.051654924 0.16995195 11983349
0.17931166 -0.1223183 0.82275838 13355466
0.053747322 0.059689242 0.41089824 11785461
-0.066355646 0.067364313 0.13627146 7904713
-0.11008195 0.12048604 -0.021720218 9998998
0.039265316 0.06969659 0.36167759 1651039
0.10053052 -0.058214061 0.56432235 1389666
-0.1179487 0.1176632 0.052547894 11392504
-0.056444775 0.086584359 0.16298085 9014152
-0.11706281 0.11473014 0.018698182 2831417
-0.073114328 0.088781707 0.087599866 2898000
0.078938909 -0.0025305478 0.47997761 11194874
-0.023296187 0.088773422 0.2300391 2238780
0.020659517 0.088395119 0.32682049 9358063
-0.12086796 0.12528132 -0.0027913172 2435645
-0.009268363 0.072667517 0.22748555 6583399
-0.077740014 0.10568421 0.084213719 1909561
-0.091329031 0.12310681 0.0044000759 12304572
0.0057993638 0.10374724 0.26254591 5549802
-0.096484154 0.13366434 -0.018757377 4746632
-0.017144313 0.1523623 0.2026363 8896747
-0.081543386 0.13525932 0.0049152337 6995957
-0.089891128 0.14171122 -0.022395363 3296858
-0.087881021 0.13933414 -0.01250516 7242861
-0.12482429 0.15700395 -0.10517816 8242937
-0.087249406 0.13934575 -0.0095251603 1581877
-0.10420433 0.14104207 -0.039023295 3160893
-0.11025573 0.14854185 -0.064485103 1908532
-0.10888632 0.14588006 -0.055601496 7061753
-0.077200025 0.12999409 0.052956786 2697791
-0.064290024 0.1440798 0.11211081 9027566
-0.10737666 0.15104675 -0.061440326 2832456
-0.080333672 0.13679868 0.028081873 13158861
-0.079496652 0.13661425 0.030465113 9685232
-0.085640766 0.1371226 0.026894836 9685232
-0.11611085 0.15153344 -0.071753234 2040361
-0.094504327 0.1441191 -0.014185321 13684433
-0.10716136 0.14690283 -0.043110218 8895458
-0.1174544 0.15829787 -0.081653111 10790303
-0.1142469 0.14989504 -0.051648051 1651794
-0.11523607 0.15190355 -0.0584911 7766429
-0.10493039 0.14793098 -0.022493841 8766714
-0.10444601 0.14875704 -0.016753029 1317935
-0.032412276 0.0072686663 0.05290753 6207732
-0.11654214 0.15269093 -0.057594314 7241316
-0.11925044 0.15733293 -0.074040428 2503242
-0.10859198 0.15495573 -0.037544664 5002370
-0.079724073 0.16016757 0.074483432 7244222
-0.13412704 0.16405295 -0.11558122 7570027
-0.13557324 0.1649043 -0.11757515 1582405
-0.14410031 0.17089164 -0.14909129 1318960
-0.10605109 0.14438444 -0.021399846 4869221
-0.11893559 0.15447897 -0.072734505 7241832
-0.11239939 0.14935964 -0.045705386 7172744
-0.11502916 0.15038495 -0.046110183 1451324
-0.11582569 0.15093113 -0.052116714 11190488
-0.12200146 0.15404145 -0.066132739 3489878
-0.12134764 0.15315185 -0.060119689 1974580
-0.12551118 0.15576871 -0.074496455 7700841
-0.12830316 0.15726675 -0.082440823 5531777
-0.14220035 0.16447157 -0.12093318 3751515
-0.12565792 0.15492603 -0.068178318 6251899
-0.14102125 0.16333733 -0.11461874 1252914
-0.12902267 0.14925428 -0.0048840041 7766638
-0.14911956 0.16678624 -0.13329145 4279142
-0.13360043 0.15858166 -0.086406134 4279142
-0.13562368 0.15962783 -0.092693619 4672618
-0.17927665 -0.57215565 0.11017128 7649780
-0.4111625 -0.38080922 0.32619813 7649780
-0.46208292 -0.43176702 0.51050115 1055270
-0.35739422 -0.36894897 0.21602851 4412795
-0.454671 -0.42194626 0.49511254 4412795
-0.40232939 -0.44007632 0.43899703 7503974
-0.21910711 -0.38762534 -0.067538843 2171456
-0.060637489 -0.55235928 -0.093335912 6383228
-0.53400236 -0.39350846 0.63071924 7635560
-0.56999344 -0.30073312 0.61397487 4541042
-0.58111596 -0.37741223 0.69470096 7569257
-0.5756427 -0.3804051 0.68896109 4149609
-0.52861321 -0.40603152 0.64110327 8833535
-0.55690277 -0.31641901 0.61383903 2959933
-0.56680864 -0.30059209 0.62210959 8161394
-0.06793087 -0.53442377 -0.062789202 9291256
-0.51409066 -0.33995876 0.56955767 3751240
-0.46082684 -0.27056286 0.39464357 9097727
-0.47118554 -0.47329935 0.6336602 5527151
0.14689133 -0.48183787 -0.44978219 7701356
-0.13120766 -0.33777538 -0.097248368 7635563
-0.45259303 -0.30051234 0.52693141 9884155
-0.13644427 -0.32916671 -0.086935967 7570799
-0.06499356 -0.31269747 -0.22407359 2827844
-0.17146289 0.10409757 0.88362646 4938860
-0.18207593 -0.33636674 0.14079209 4146525
0.031695284 -0.39888817 -0.16499443 8571902
-0.047327831 -0.28116599 -0.21680354 10931441
-0.20244169 -0.46788019 0.386814 4153742
-0.3534576 -0.24662904 0.40009207 4153742
-0.23532595 -0.47584412 0.49392748 3556215
-0.23836228 -0.28410953 0.26127404 3165561
-0.24421692 -0.48055765 0.52211374 2773117
-0.15128334 -0.25944036 0.075769491 6864381
-0.27299482 -0.13313429 0.14595868 3686501
-0.081507698 -0.18054174 -0.19275506 3686501
-0.36963156 -0.27087134 0.53908098 3095896
-0.37332436 -0.28255934 0.56006294 7042433
-0.21503919 -0.13565372 0.041767769 7108477
-0.36296034 -0.19546638 0.45927566 3100793
-0.35358992 -0.23263255 0.49786779 3423566
0.067702942 -0.13716862 -0.43499359 9476771
-0.33514601 -0.14525381 0.44348046 9673099
-0.31635654 -0.11778377 0.40179297 1841979
0.005871533 -0.086902916 -0.2893191 3159355
-0.17490666 -0.10611825 0.11260788 3025736
-0.081196636 -0.075286061 -0.1115081 3425382
0.26972023 0.059969828 -0.9072845 8439551
-0.19578443 -0.097383708 0.19548777 9029883
-0.23117672 -0.24552882 1.338032 3223107
-0.25402099 -0.10990293 0.42151368 8962022
0.25337076 0.12726115 -0.59699535 3890303
-0.10725359 -0.0026121384 0.17979278 4740456
0.24835819 0.0291517 -0.44369447 6318975
0.07634113 0.018370554 -0.10767713 6866943
0.6563617 0.31407893 -2.4198096 6997498
0.27592513 0.010513523 -0.43542624 9094639
-0.090604894 -0.13352615 1.3050009 3292984
-0.064399399 -0.031639088 0.25282604 8230581
0.0011973586 0.0095926533 0.13624433 5134976
0.079713933 -0.0063262531 0.052728552 5263717
-0.036078621 0.036912624 0.27436033 4676727
-0.032560803 0.043475356 0.26681739 9947379
-0.057515528 -0.023749169 0.37426329 4678012
0.0055910684 -0.045017224 0.31579491 8833272
-0.052428279 0.058389965 0.35374746 8833272
-0.098463863 -0.049452621 0.51339501 4089759
-0.080173701 -0.032868825 0.50159764 13815501
-0.086533986 -0.055620465 0.55188555 7701356
-0.032004196 0.07389836 0.49067304 5599648
0.018321784 -0.1515608 0.58796245 3421264
0.011233698 -0.17096154 0.61724061 4746647
-0.093640208 -0.022719365 0.68068391 3688284
-0.073665872 0.045050096 0.64276814 4744065
-0.097819857 -0.12125013 0.76349765 10934014
-0.087398984 -0.096951157 0.741871 3025736
-0.071937487 0.011979911 0.69917917 4084339
-0.088257082 -0.13692458 0.85462838 9882874
-0.034144968 -0.064826339 0.81690586 4617116
-0.048628759 -0.068070434 0.83677322 2499908
-0.026971089 -0.093974978 0.83872795 3885673
0.031438261 -0.30971313 0.91188812 4152177
-0.071556151 -0.56400692 1.3069714 3618892
-0.010010959 0.030159397 0.78508812 8506111
-0.038108855 -0.15401255 0.89808321 8489581
-0.072496153 -0.19963609 0.97347319 3618641
0.035566688 -0.32456928 0.9649148 11184301
-0.047320999 -0.20750411 0.99999517 3622248
-0.020237081 -0.57210428 1.301845 4081771
0.00052622665 -0.21838254 1.0215741 7830129
0.051694203 -0.34551963 1.0645238 3750227
-0.047112472 -0.2392219 1.0865729 4802915
-0.030762333 -0.2238107 1.0862089 9750768
-0.0057665715 -0.17961398 1.069796 2697287
0.026165834 -0.20600799 1.0732609 1850466
0.014818983 -0.20072824 1.0833056 2434116
0.052253708 -0.098810241 1.0287081 3360368
0.056169245 -0.15442038 1.063464 8818303
0.080368623 0.14858761 0.99486411 11462143
0.068838231 0.15056342 1.0094028 12443647
0.017156646 -0.17577355 1.1290903 2374490
0.069797046 -0.21709727 1.0903027 2445686
0.14791474 -0.32974258 1.0883043 10539503
0.059180196 -0.10206815 1.0973048 2504531
0.056403723 -0.17583525 1.1189296 10017020
0.11444569 0.15880525 1.0230938 4018815
0.14212963 0.18591073 0.99982691 2764620
0.30150643 -0.034584116 0.92171901 5790284
0.069254227 -0.17808378 1.1376231 11722237
0.13876736 -0.18495011 1.0981357 1452874
0.22262003 0.14976239 0.99864042 6713994
0.15643193 -0.20838645 1.1206312 1909302
0.33820334 -0.040304102 0.99314886 13169151
0.34501171 -0.03788048 1.0254935 2701137
0.19376943 -0.19315492 1.131003 1452371
0.2749258 -0.27267823 1.0232983 13492989
0.20015933 -0.23623841 1.1342844 2306890
0.1828448 -0.25338635 1.1418548 7968697
0.30902317 0.14283252 1.0560281 1909561
0.22938423 -0.23780596 1.1299896 7898741
0.24178879 -0.23792805 1.1232381 6852534
0.32536355 -0.33304754 1.1196123 6852534
0.52452159 0.23224854 0.90903449 6788804
0.29652607 -0.12355405 1.1252903 5855328
0.36453307 0.13329439 1.0800176 7501932
0.39139384 0.15874583 1.0801014 12311289
0.41163132 -0.21597481 1.1205446 5206949
0.4819653 0.013440125 1.0763218 11330302
0.37018028 -0.05045845 1.1446782 7307625
0.51922774 0.041561652 1.11752 4613781
0.44654062 0.16573031 1.1580528 2898770
0.37868452 -0.16742951 1.1882912 12895428
0.46155292 0.14545818 1.1688553 2766412
0.44240275 -0.17176279 1.194266 7312060
0.41167268 -0.13599913 1.2104925 9934745
0.50721735 0.13761541 1.1869614 1784943
0.56657332 0.39007413 1.1485076 466255
0.43137181 -0.10845324 1.2172157 11194612
0.47351238 -0.1392718 1.2083651 9671830
0.67261285 0.37100941 1.0942142 6130880
0.55215365 0.098635212 1.2104863 4279104
0.63662452 0.47419417 1.1465462 11654911
0.55110949 0.13326856 1.2166666 2371403
0.48133615 -0.12282183 1.2356137 2043210
0.53264982 0.015617905 1.2316077 1843768
0.53535897 -0.083581991 1.2369064 15662079
0.7493304 0.44258943 1.1513575 8044008
0.56958014 -0.098208435 1.2328943 6583401
0.65132302 0.15183155 1.2484367 3033947
0.63418132 0.16356334 1.2786591 4017752
0.6446681 -0.13707468 1.2643428 11844019
0.7120828 0.080408044 1.2712255 1448750
0.67369014 -0.10240822 1.2834315 5547492
0.68813682 -0.068111926 1.2789544 8764910
0.66836023 -0.042240866 1.2942301 2187404
0.70421064 -0.058875978 1.2887659 2187404
0.88522875 0.41820899 1.279689 9023202
0.68275696 -0.023207162 1.2934579 6797038
0.78401035 0.12593327 1.3281389 3954788
0.77874309 0.1353253 1.3336468 1647931
0.69268638 0.070527546 1.1322098 7979757
0.6793797 0.065522999 1.141389 2174018
0.72305667 0.080264337 1.1433526 4617908
0.63015687 0.032386366 1.156435 2238777
0.66166353 0.04626821 1.1633378 13356492
0.66166353 0.04626821 1.1633378 7060470
0.72357619 0.075058267 1.1682844 2698303
0.76316434 0.090925418 1.1678742 13093838
0.68191248 0.049687292 1.175916 11579307
0.7454586 0.082704931 1.1745304 8440310
0.72255242 0.050339099 1.2079482 2568249
0.86409247 0.12360118 1.210434 1644849
0.85409111 0.11763349 1.2148952 7847406
0.85391378 0.11638865 1.2185675 2633799
0.88743573 0.12652342 1.2327958 6467559
0.1286294 -0.16004536 0.065237418 3884913
0.91301405 0.13682614 1.2303292 8565474
0.86158341 0.10862548 1.2406409 3686500
0.87537366 0.10664973 1.2566061 8029557
0.96488303 0.15199026 1.2652397 3226462
0.94450223 0.14012851 1.268231 6731507
0.91301656 0.11629397 1.2751889 5535916
1.0083289 0.16517296 1.2853832 7176037
-0.15692186 -0.018783774 0.27739686 2962512
-0.29647511 -0.027987543 0.37016523 3948635
-0.3048974 -0.0075228224 0.37845898 6449021
-0.21452089 -0.071561076 0.32256782 1978187
-0.29688275 -0.011655902 0.37240356 3158339
-0.19821262 -0.054837476 0.31008604 10338274
-0.27425486 -0.010129609 0.35706344 9809613
-0.2836656 0.10333642 0.35241166 7767146
-0.23130819 -0.10130009 0.32967329 6777984
-0.24716908 -0.020177057 0.33925235 7896718
-0.2751863 -0.080731601 0.35312411 4147311
-0.24408972 -0.01277566 0.33846462 2831948
-0.26908723 -0.0094805155 0.35297462 6470655
-0.27314964 -0.066684455 0.35353777 5856892
-0.23654747 -0.016644619 0.33322015 2631494
-0.15804586 -0.014911803 0.27159351 4604257
-0.26252237 -0.055033434 0.34387809 7780596
-0.25323376 -0.049644303 0.33400005 4544129
-0.24060972 -0.021336868 0.32582122 6979676
-0.22630684 0.066477209 0.31827429 6053495
-0.21257997 -0.008235204 0.32040411 6449021
-0.2155139 -0.018311678 0.32148981 7372388
-0.20549825 -0.010821706 0.3133224 7235968
-0.19236903 -0.01126377 0.3060436 7502698
-0.1934264 -0.049042024 0.31147641 4607325
-0.15438797 -0.034109496 0.28373078 10670840
-0.13965337 -0.010648596 0.2662535 8028789
-0.18027531 -0.0022519296 0.29683909 9687293
-0.13810878 -0.010095577 0.26472807 5593719
-0.18459725 -0.035956655 0.30197856 5077146
-0.13535178 -0.0086528091 0.2613287 7174760
-0.17114602 0.016466971 0.29551002 4875387
-0.16605799 0.045144882 0.27716348 8964344
-0.01539656 -0.028639037 0.02929965 2697539
-0.16165836 -0.040106904 0.2842119 6448769
-0.15548129 -0.00059591664 0.27589142 6131131
-0.14275543 -0.0042466493 0.2676276 3886174
-0.14205903 -0.0053103203 0.26514447 2171454
-0.14201736 -0.002811014 0.26018175 8834303
-0.13024397 -0.058199808 0.24023283 6909819
-0.12427863 -0.012822768 0.23714085 3487819
-0.12104779 0.016516428 0.24258856 7238519
-0.11320013 -0.057210196 0.23418137 4415374
-0.013684219 -0.034479644 0.047907133 4415374
-0.10620885 0.00089189893 0.22319463 5922675
-0.10301253 -0.0099747218 0.22223991 3029863
-0.098361574 -0.0030113901 0.22094764 8503539
-0.097954832 0.014352556 0.21773233 9288938
-0.09693557 -0.023101935 0.21993326 3035262
-0.087093815 0.022799348 0.21766292 3035262
-0.076494381 -0.017932348 0.20579255 3554914
-0.064812288 0.013579758 0.21361476 3554914
-0.058546927 -0.0079768896 0.21066383 8046335
-0.058576889 0.015047826 0.21191514 2969207
-0.054796811 0.0085937371 0.2128863 8884634
-0.04760408 -0.010551314 0.19975998 8112382
-0.053592347 0.024583094 0.2051215 8112382
-0.052559841 0.025528399 0.20163828 6120307
-0.042151313 0.0010704235 0.19974966 3489359
-0.041001629 -0.0003505999 0.19563919 12236219
-0.038615879 0.0041362303 0.19521555 3420744
-0.031997807 -0.033518426 0.19520923 3358302
-0.029872635 -0.0014675491 0.18387817 8243707
0.0017480276 -0.064494833 0.2002653 8570611
-0.025273202 0.0038192619 0.17265114 6318440
-0.019408159 0.0028431185 0.16638975 4942213
-0.01878497 -0.039378215 0.17069244 3222594
-0.01734793 0.0017696274 0.16680132 2240032
-0.01600476 -0.037893463 0.17234553 2240032
-0.0074596703 -0.0038353992 0.17561761 4610677
-0.0059549175 0.014216945 0.17980075 4740204
-0.0053431457 0.015518248 0.1812789 2042665
-0.0046880553 -0.043662522 0.18009079 8505855
-0.00037728445 -0.0076684481 0.17632595 4012619
-0.0013467501 -0.040383719 0.18116917 3486279
-0.004244158 -0.014130931 0.17001219 5398399
-0.0032907641 -0.0179535 0.16469672 9356530
0.0097186305 -0.023892088 0.24351394 1851766
0.015917167 -0.038468909 0.19420908 5011104
0.015114198 -0.040818416 0.18725453 13158341
0.014447274 -0.011164261 0.18013313 6062767
0.0056832302 0.013371294 0.16412221 10076395
-0.021087021 0.02629569 0.086976506 5929896
0.018469388 -0.038871232 0.18575586 6448476
0.014655499 -0.017112358 0.17461997 11064056
0.014758599 -0.019884348 0.16735719 2236737
0.012688365 0.0064512291 0.16015542 7436903
0.021373861 -0.021442998 0.17425889 4147816
-0.029586656 -0.021307668 0.028796369 13289925
0.037607066 -0.015117339 0.19820935 6251889
0.047452465 0.017769171 0.27317962 7763823
0.027087677 -0.025363456 0.15493226 12302780
0.0466628 -0.043782812 0.22536936 8965887
0.037598517 -0.03154039 0.17126898 3683918
0.040662218 -0.025284898 0.17593965 9622525
0.037112638 -0.027817309 0.16614573 9360127
0.040570647 -0.026848618 0.1733613 12630714
0.046108235 -0.025713652 0.18292974 8424299
0.032734454 -0.033455368 0.14723772 2832472
0.037162274 -0.042650063 0.15669347 3620193
0.042465005 -0.044047076 0.16836482 8554620
0.065317303 -0.033429384 0.21888517 3816022
0.016708568 -0.018684074 0.085125498 8224887
0.040187776 -0.03929387 0.15358707 4737124
0.086330213 -0.052713905 0.30359015 10604780
0.026747985 -0.029344432 0.10782923 2631495
0.074437313 -0.054155517 0.27927545 3162212
-0.048041042 -0.037933417 -0.105726 8818045
0.095042065 -0.050102986 0.2875745 11589370
0.099346027 -0.033107705 0.29749754 7898732
0.10425345 -0.03527743 0.30276033 10461099
0.11441357 -0.034670867 0.31502664 3302026
0.11578974 0.014345776 0.31237358 4146533
0.13301004 0.018141042 0.3344225 10214398
0.13356073 -0.034779545 0.33979687 1587043
0.13341931 0.016012067 0.33218375 1655661
0.13835518 -0.040722091 0.34583113 5006221
0.13843118 -0.049187802 0.34375393 6580565
0.14669378 -0.039188839 0.35754609 3823227
0.14920345 -0.037838228 0.36122507 1251635
0.15104465 -0.03598747 0.36375898 8035783
0.15671866 0.02108808 0.36774853 8035783
0.17181291 0.02524408 0.38974667 1582916
0.17822307 -0.044347454 0.40342781 3027015
0.17822307 -0.044347454 0.40342781 11789054
0.1933386 -0.041663498 0.42692116 13494271
0.1968746 0.033415936 0.42744482 13494271
0.21781684 0.035987549 0.46073183 1518406
0.26600531 -0.05277418 0.54251319 2238015
0.36850491 0.066400521 0.7089498 13233407
0.49982861 -0.09635812 0.93499768 6985154
0.63076663 -0.07823953 1.1570213 11330302
0.72623104 -0.10673919 1.3212247 7439722
1.1918623 0.10437353 2.1202796 2501952
5.7598739 -0.55316001 9.9876299 3556700
-4.1722746 0.21128219 -7.1287384 3029584
-2.8613055 0.27940452 -4.87605 7240811
-1.9049348 0.15015763 -3.2251544 12171446
-1.9646736 -0.21934164 -3.3261871 6392510
-0.64650315 -0.16231766 -1.0625907 11326965
-0.57967997 -0.051375967 -0.94648284 9342347
-0.52954966 0.014546044 -0.85948914 1980772
-0.49415249 -0.0010233365 -0.79922849 11523577
-0.38342085 -0.0091737909 -0.6107415 10132631
-0.38342085 -0.0091737909 -0.6107415 12238779
-0.26033339 -0.0069970638 -0.40261108 14015465
-0.25525382 -0.051740922 -0.39527312 1645878
-0.24266726 -0.03648296 -0.3732529 15794175
-0.17392053 -0.02188237 -0.25911996 15794175
-0.1237726 0.00048876216 -0.177292 7044465
-0.11342364 -0.054936625 -0.1655096 1448750
-0.10566854 -0.039102733 -0.15050487 11909814
-0.079430029 -0.0429946 -0.11155409 5669792
-0.079840295 -0.034514368 -0.11099984 3037312
-0.065329522 -0.01590126 -0.088050358 3037312
-0.067066081 -0.0336641 -0.091666088 6139378
-0.055735569 -0.035282023 -0.075651005 8631516
-0.062198076 -0.015649516 -0.081147164 3369894
-0.042217847 -0.026752822 -0.055515844 6986443
-0.038907863 -0.018695921 -0.050368253 12106421
-0.30596554 0.012498016 0.39603242 7191796
-0.31713316 -0.055291571 0.41881025 2440260
-0.33136222 -0.056155536 0.4231452 1711923
-0.29989481 0.016356746 0.39080796 11645864
-0.32022446 -0.05723536 0.42041343 12829376
-0.191358 -0.054725055 0.28161085 6799092
-0.30221698 -0.05193786 0.4140068 2038578
-0.30885381 -0.13553646 0.4142403 1843772
-0.190533 -0.080479644 0.37576801 8700657
-0.2520186 -0.20798454 0.42077619 13750224
-0.21865444 -0.12637238 0.40628701 10790303
-0.32339707 -0.061031628 0.43101537 2041401
-0.29664341 -0.10103404 0.41060117 10921887
-0.286006 -0.05377328 0.40836561 8505343
-0.31426474 -0.079477467 0.42368269 11185062
-0.31430858 0.090763532 0.42698684 1974578
-0.30083668 -0.00063538551 0.42795774 10856097
-0.25526032 -0.057363529 0.41205555 2700889
-0.2959567 0.034612607 0.44304049 5394025
-0.28589904 -0.050024379 0.43269855 9344170
-0.24622567 -0.047382962 0.40129265 8438775
-0.20439865 -0.16147295 0.41637117 8438775
-0.18454492 -0.10654404 0.40415236 3027533
-0.17655037 -0.099719211 0.40339223 6535416
-0.24767643 0.012686973 0.41546756 4937080
-0.20497675 -0.011171613 0.3794882 3292255
-0.19854155 -0.011440142 0.37052473 5338032
-0.16459031 -0.10132027 0.39820942 5070209
-0.22397633 0.047167271 0.39673468 5331579
-0.22182155 -0.0051078331 0.40393773 1385026
-0.17773601 -0.015348339 0.37228674 4606039
-0.16691075 -0.14426453 0.3932189 6448767
-0.17501512 -0.091092303 0.38898593 2701138
-0.16902438 -0.03403027 0.38892204 7635050
-0.1710797 -0.038190264 0.38212925 6798076
-0.16356465 -0.048718471 0.3910861 2433597
-0.13496771 -0.10304723 0.34866938 5920359
-0.15040927 -0.086621337 0.38349649 7040388
-0.14808241 -0.038604897 0.40506852 10986930
-0.075358354 -0.044892386 0.40685424 7635050
-0.10218567 -0.034497708 0.42020762 4935010
-0.073731989 -0.10474534 0.41387913 7502696
-0.061833754 -0.044784769 0.40968746 9687295
-0.046131741 -0.034032978 0.41693759 5001573
-0.060897969 -0.053445779 0.41450408 2630978
-0.065128058 -0.019112486 0.43203667 10474748
-0.058935083 -0.024577804 0.43390483 10474748
-0.035902854 -0.092564233 0.4213919 3953006
-0.052575689 -0.016917111 0.42777422 1710644
-0.047665004 -0.027407501 0.43580666 8898040
-0.017475396 -0.029815931 0.44969377 6261431
-0.01200783 -0.053316288 0.43868616 4675690
-0.0030586529 -0.072974361 0.43113983 5994399
-0.0051889592 -0.05399682 0.43339664 3161196
0.0040620719 -0.046645224 0.44825613 2303818
0.0034500302 0.039866846 0.44624498 2303818
0.01010845 -0.075744174 0.4230862 3824778
0.024370313 -0.04199848 0.45493892 2311788
0.036290448 -0.075946786 0.42987463 1777989
0.047786459 -0.047339492 0.451316 1777989
0.054739106 -0.038769662 0.45917562 7384538
0.068902396 0.0068277363 0.45541552 10143994
0.079780988 -0.0798648 0.44530565 5463398
0.041475371 0.053922951 0.33579779 9883902
0.13020031 -0.05450337 0.48975247 3292230
0.14280091 -0.074600741 0.4844138 10657188
0.1821173 0.029714311 0.54384136 8818805
0.12864837 -0.073362306 0.45649758 3030105
0.14547147 0.026261216 0.48339167 7569028
0.13991253 -0.069318339 0.47069305 9029362
0.14659226 -0.070716932 0.47762686 1446706
0.11488131 -0.086480267 0.42520896 5071226
0.1492451 0.027500719 0.47463134 5856337
0.15005596 -0.071876191 0.46869123 3752008
0.14407638 0.033839475 0.46235228 2700587
0.18114768 -0.049147952 0.5103361 8439807
0.21376151 -0.047781698 0.55212051 4349307
0.21653534 -0.052373771 0.55447876 5136251
0.10677533 0.0072915889 0.19290312 11390713
0.15848024 0.037745874 0.44651079 4417667
0.27019283 -0.074644148 0.61990082 9817596
0.20636068 -0.048324708 0.51659352 4874876
0.27659798 -0.052387148 0.62492925 2970498
0.16949378 0.036661305 0.44892639 4813985
0.29813531 -0.056395359 0.65082181 9553397
0.33041084 -0.067079656 0.6905039 4478061
0.32494023 -0.063834824 0.67969501 12895167
0.25415605 -0.03687181 0.56498301 10208751
0.1803952 0.033137005 0.4343003 3956882
0.39509165 -0.073823228 0.77158475 4878497
0.43159902 -0.07470423 0.78741646 5929632
0.45178676 -0.06102505 0.80358815 12697788
-0.92338538 -0.23460378 -1.4053613 6261171
0.25786129 0.0050359932 0.4963091 4015979
0.3510052 -0.029339615 0.63436866 11260919
0.30072322 -0.017541157 0.55716044 3688294
0.2830646 -0.010587363 0.52640843 12368055
0.24119046 -0.0034393556 0.46039248 12960960
0.19600034 0.017166395 0.38776964 3820383
0.14740893 0.044971362 0.30638751 4341586
0.10374568 0.048034642 0.22485907 9096696
0.12590051 0.052401818 0.2469708 8900095
0.1033448 0.0043754694 0.13375373 11130102
0.5068993 0.067110948 0.69346708 4412268
0.15535483 0.062381506 0.28271741 4739701
0.097739354 -0.008103027 0.12657003 3881297
0.14266993 0.064916097 0.2537424 4342364
0.035408475 -0.01044524 0.040027902 8298951
-0.12929453 0.021241855 0.20942906 8298951
-0.24600843 0.056593653 0.35601115 4543354
-0.092613973 0.01479662 0.16830662 4211792
-0.054426957 0.012373721 0.12214465 3619417
0.07850676 -0.016613478 -0.047514375 1981025
0.17623311 -0.13795429 -0.19873574 7303300
0.0015159976 0.0057268217 0.054624353 4091021
0.081492059 -0.020269684 -0.053438053 5203849
0.18992104 -0.15262319 -0.22529081 10017019
0.072283983 -0.023384562 -0.038978003 6520493
0.077463701 -0.025520818 -0.046274628 4349057
0.066503659 -0.0045051142 -0.029952241 12835578
0.093953192 -0.020709882 -0.071666248 5401741
0.085806504 -0.022622336 -0.062525526 10994400
0.072389141 -0.0088679502 -0.03986365 2438740
0.056697693 -0.0055122292 -0.015967263 2304570
0.071489744 -0.0093866596 -0.038693618 1648449
0.10319782 -0.036306925 -0.094430119 12246521
0.061182052 -0.0059570866 -0.022529149 3228773
0.069786757 -0.008503722 -0.036279857 12968441
0.5303539 -0.11472023 -0.77540857 12968441
0.19005713 -0.12107811 -0.26535416 13496319
0.21475649 -0.17212641 -0.32224986 6852275
0.080919199 -0.049764577 -0.11968403 6200012
0.083065808 -0.010140074 -0.062644526 3232389
0.11551648 -0.04566012 -0.13313754 11199229
0.26050147 -0.037973914 -0.39063436 7307623
0.25549749 -0.17256017 -0.41655821 3095628
-0.13222927 -0.020606047 0.26851884 13092807
0.083577909 -0.011482666 -0.068830401 3031128
0.2097737 -0.030876033 -0.31330422 11590399
0.099870414 -0.031817805 -0.10017934 6325933
0.17403327 -0.026664564 -0.24792163 6186098
0.32952711 -0.11305034 -0.59335184 11786235
0.27717707 -0.023122707 -0.47557795 2636645
0.085506946 -0.019728906 -0.078267872 4223137
0.37607098 -0.11156589 -0.72137076 11911092
0.33120161 -0.015275844 -0.61774379 9014922
0.1268547 0.0060503078 -0.17119405 1056313
0.12679824 -0.048418168 -0.17403567 10330780
0.075435452 -0.0085884277 -0.060355145 1908534
0.58072847 -0.43368357 -1.2365783 12830144
0.23334917 -0.13981353 -0.47590154 1711922
0.19829351 -0.10495207 -0.39264154 7450854
0.15463051 -0.051734507 -0.28467855 11579568
0.048823014 -0.005204556 0.0038953433 1987981
0.081690133 -0.0075822119 -0.085960783 7963776
0.15887263 -0.1145454 -0.36920545 6196926
0.15674959 0.0025790767 -0.33340725 7127029
0.060338061 -0.0070041339 -0.022497291 15923711
0.11450028 0.015790645 -0.2240371 2842269
0.12485612 -0.0011448094 -0.25890753 11711663
0.1456503 -0.029838292 -0.34430185 2171955
0.15121688 0.0013829821 -0.37468696 2500412
0.097371966 -0.00038376611 -0.17162439 12368573
0.12049382 0.019221663 -0.26411048 7126257
0.11443596 -0.010745195 -0.27991453 2237239
0.11152588 0.034377981 -0.28270495 4082767
0.1155709 -0.0045909658 -0.32791013 2172745
0.11753156 0.022058072 -0.35888562 14080213
0.093281046 0.0052064434 -0.2504262 2698817
0.10208955 -0.0090709589 -0.28697023 11514024
0.092806779 -0.020848442 -0.23432067 11119266
0.090888314 -0.020568347 -0.23058662 2898778
0.070238948 -0.016346399 -0.15221722 11118755
0.066431187 -0.012708804 -0.13463284 7437206
0.072388105 -0.074504137 -0.31696954 10461336
0.089795455 0.0065514566 -0.4155362 4871028
0.06641943 -0.027922649 -0.27257431 7633542
0.085628867 0.023566442 -0.43893638 7635058
0.081454061 0.045280635 -0.44515878 1385028
-0.023090331 0.005705039 0.14758325 2631995
0.063656807 0.0054482939 -0.40251011 7907034
0.054432835 -0.018497178 -0.17669493 7776473
0.046967581 -0.015886851 -0.17244147 2635080
0.043568403 0.019206811 -0.3882224 7834220
0.037142217 0.047266938 -0.41169664 7782386
0.043120347 -0.0139438 -0.16567481 10608639
0.038886756 -0.022525126 -0.24549626 7368323
0.0070554176 0.064096317 -0.49278319 7635050
-0.0059277616 0.079021193 -0.51645327 3161689
-0.0083788689 -0.032745034 -0.44170183 9883642
-0.010402565 0.072724439 -0.5176239 9685745
-0.0075266086 0.061606959 -0.48584819 8636147
-0.016733414 0.1012131 -0.50171065 4013651
0.024492146 -0.012670373 -0.18982974 6262717
-0.032268122 0.10172653 -0.5317834 2502236
-0.029077202 -0.076071613 -0.40056437 4218763
-0.028879661 0.080160297 -0.48426276 3226201
-0.028879661 0.080160297 -0.48426276 3226201
-0.045492005 0.10028563 -0.55337024 7250903
-0.046455365 0.084297583 -0.53292662 9802654
-0.049474824 -0.082713507 -0.43117228 8435947
0.027455255 -0.0033547953 -0.14713885 9815028
0.0020433774 -0.012082017 -0.23432158 7979003
-0.092680588 0.13708629 -0.67357296 3819880
0.032827079 -0.01968242 -0.096248947 3292748
-0.12102909 0.087197229 -0.6492002 2895431
0.015225618 -0.007527512 -0.15194787 8374012
0.010300915 -0.0058835722 -0.15841299 6186575
-0.0084363008 -0.01201892 -0.19887871 3825796
0.014514024 -0.0080857212 -0.13594846 5074845
-0.0047327415 -0.015856775 -0.19484779 12829126
0.078765102 -0.011661127 0.14122839 9024747
0.036149763 -0.0062296274 -0.076616228 4144215
-0.022295758 -0.022455936 -0.22514912 2113898
0.065968558 -0.010874315 -0.0031264359 5537193
-0.28127286 -0.13142405 -0.79013306 5139867
0.03451119 -0.0058776727 -0.078313664 13354698
0.0017511101 0.0054572173 -0.15415838 5403548
-0.098685622 0.057407405 -0.38853073 2894653
-0.098685622 0.057407405 -0.38853073 10145272
-0.15204167 0.07148952 -0.49332598 3819104
0.081003919 0.0013617594 0.18442635 10607102
-0.070981055 0.033934724 -0.2882973 12434101
-0.24918714 0.075240113 -0.65472662 12960194
-0.06498199 -0.0050421245 -0.25997525 8901119
-0.22034048 0.041805711 -0.55579418 9359870
-0.11709621 -0.032311611 -0.35055929 2897751
-0.1710085 -0.056381911 -0.43884671 4210778
-0.14868414 -0.035495978 -0.39444831 12769787
-0.18109702 -0.051087663 -0.44438487 2313587
-0.088631555 0.0040355935 -0.27892575 3031144
-0.13362582 -0.007947512 -0.35116792 1781324
0.06494832 0.027196568 0.13680364 2501439
-0.14567783 -0.0011029372 -0.36370152 3427438
0.063784666 0.0065671098 0.11398064 10345471
-0.20367925 -0.058353227 -0.4377656 3492981
-0.25048408 0.025481051 -0.51440132 7502193
-0.24941994 0.028372284 -0.51090664 1582657
-0.24150716 -0.0072200396 -0.48653921 12051454
-0.39569071 -0.1545615 -0.91390759 2834527
0.89183712 -0.18815921 1.6674255 12638963
-0.21170764 -0.089710765 -0.53380775 2901094
-0.1699225 -0.071655549 -0.44599947 1519958
0.870731 -0.1809752 1.5732996 2304832
0.83317292 -0.19420537 1.4963958 13487054
-0.57153451 -0.19335365 -1.1363571 4014929
0.66769588 -0.056942087 0.99363798 7439209
0.68252146 -0.081278197 1.0238774 2438728
0.29992178 0.0023111228 0.36790305 13355981
-0.14339322 -0.057431739 -0.33850628 11654394
-1.0488442 -0.76232922 -1.7050999 7175788
0.36580622 -0.0048264842 0.45916772 6647435
-1.1124516 -0.85096693 -1.7555908 1910325
0.57679254 -0.047872122 0.79563504 1648424
0.57679254 -0.047872122 0.79563504 4804465
0.50506806 -0.028476981 0.66587055 2174794
0.52968633 -0.038467612 0.69986486 15727871
0.40652636 -0.01291481 0.50654799 12764103
0.33747497 -0.0078238929 0.39967433 7174286
0.28430447 -0.0039329771 0.31839839 1514793
0.011938479 -0.022077532 -0.088835098 12895939
-0.078839488 -0.039596375 -0.22025087 12895939
-1.0481496 -0.79968488 -1.5063323 13093571
0.0036390801 -0.021623246 -0.095410064 3894957
-0.06672617 -0.036310192 -0.1886562 16056319
-0.018730829 -0.02484942 -0.12170459 16056319
0.30387986 -0.019037804 0.30120599 7454193
-0.039299987 -0.027004592 -0.14491276 5932476
-0.92685145 -0.66471827 -1.2167693 5336193
-0.0039333338 -0.021840123 -0.09849222 6977132
0.28397968 -0.019863397 0.26593459 3759765
0.24611205 0.064229436 -0.29307202 6602492
0.24459292 0.058084399 -0.28983095 1315617
0.24195597 0.054332767 -0.2892797 10264219
0.24200699 0.048430212 -0.2879777 11909814
0.24329624 -0.016537476 -0.24434644 13224391
0.24244155 -0.034599099 -0.2455982 7322866
0.23606111 0.038370542 -0.28571805 12829886
0.23613487 -0.035644624 -0.24848831 2633284
0.23474352 -0.033450179 -0.24642344 13091776
0.21387182 0.067725427 -0.29387122 8240106
0.060528785 0.070059925 -0.088694744 8633332
0.21890576 -0.036250785 -0.24905086 12894401
0.20864791 0.077495143 -0.29316884 11842738
0.20908028 0.022296797 -0.2379346 7437422
0.20434375 0.048241146 -0.24801321 12828604
0.16214696 -0.06573756 -0.28443536 3687784
0.18105324 0.0030443834 -0.2609497 3027268
0.18131746 -0.02813137 -0.23009042 7702634
0.15161611 -0.065735184 -0.28602818 1975618
0.17482854 0.0032935482 -0.25836572 4213874
0.14549017 -0.023860035 -0.2963652 11907753
0.16190635 0.0027830123 -0.26061612 4474212
0.16213684 -0.020818816 -0.2375322 11118241
0.13520582 -0.088117339 -0.26359084 12039343
0.1405666 0.034270138 -0.24768911 11447720
0.14265986 0.054439403 -0.21178211 2831704
0.13534622 0.10742861 -0.29416457 7518192
0.13434012 0.064803839 -0.2440463 7518192
0.11902418 0.0551803 -0.26046786 11184802
0.12357857 0.026589707 -0.23132199 3290954
0.12230678 0.12380683 -0.30487129 4017267
0.11949807 0.054270077 -0.26810536 4017267
0.11805534 0.079040721 -0.2638503 3818073
0.11580712 0.057315152 -0.23527938 9475750
0.112033 0.12530793 -0.3029727 3751241
0.1035744 0.02754833 -0.18046927 2567234
0.044047244 0.0043315203 -0.10931529 2567234
0.099542841 0.073089324 -0.24142222 5330538
0.099154204 0.11571331 -0.27729455 8301538
0.099607006 0.10373647 -0.27247533 5462134
0.087770186 0.028706262 -0.20004971 7435399
0.07632602 0.073808149 -0.13631205 1844279
0.059173442 0.00026323498 -0.14464442 4344944
0.10382116 -0.01625664 -0.33294871 8160624
0.059487585 0.065832481 -0.11552017 8160624
0.057724189 0.062874638 -0.075593024 4277852
0.046011861 0.0044924826 -0.13405126 8046335
0.029685248 0.070506506 0.036838319 7833702
0.032901376 0.084940679 -0.19662072 11908543
0.029605633 0.043674178 0.056863945 3158844
0.023985915 0.09647058 -0.28033423 4147541
0.022544542 0.091891624 -0.24388124 9621759
0.016764211 0.10586458 -0.35315403 4012619
-0.0019158819 0.00045146106 -0.050132379 2762562
-0.0021487854 -0.0022721975 -0.048880424 10013940
0.0080715287 0.127813 -0.53860074 10146815
-0.019729005 0.15795363 -0.68599015 1711922
-0.029420482 0.16163114 -0.77124202 9293055
-0.034785155 0.16528982 -0.90718973 5403812
-0.030953035 0.15798613 -0.89358848 8292477
-0.080301672 0.17568147 -2.8324776 3423590
-0.033800136 0.18901397 -0.93302059 862545
-0.033857044 0.17163418 -0.84778416 1645631
-0.039635975 0.17105213 -0.8348487 2174026
0.00039152484 0.21700564 1.1031728 2174026
-0.0092433849 0.15509538 0.70944262 7712735
-0.021042261 0.16504692 0.67760187 3422543
-0.035864811 0.15178159 -0.76644909 7713505
-0.05971507 0.013839052 -0.15251298 8552581
-0.042499881 0.15085289 -0.70319086 3685712
-0.051318459 0.15804982 -0.5886724 3685712
-0.053263795 0.14570776 -0.60906732 10340335
-0.063948028 0.09607511 -0.40538794 7898758
-0.068382658 0.087755047 -0.16954979 10525602
-0.071571782 0.08830256 -0.13685611 8374014
-0.077253088 0.13107251 -0.45556536 6713717
-0.087989949 0.091475397 -0.35216501 8374010
-0.096149325 0.014151963 -0.18855442 5729415
-0.090483502 0.12098102 -0.41480613 3494500
-0.095698021 0.088507146 -0.34390223 2771301
-0.091920063 0.12842639 -0.41287225 5011338
-0.093629487 0.092111535 -0.36271527 9549022
-0.096301422 0.13799609 -0.44932771 2775415
-0.096945927 0.13222797 -0.45066598 3552072
-0.10327608 0.13770227 -0.36611393 7503723
-0.12142451 0.02093678 -0.24246442 4945568
-0.10536143 0.1477284 -0.39917642 13750737
-0.10604513 0.085539885 -0.28235251 8502500
-0.10757755 0.15222058 -0.39207014 3618893
-0.10761135 0.15398614 -0.39680812 4747928
-0.10785616 0.15062654 -0.39960176 5075615
-0.11309042 0.095525205 -0.32466534 3757187
-0.11048384 0.085992441 -0.28254148 3757187
-0.11418585 0.072600625 -0.2534388 8438516
-0.12438048 0.025477726 -0.24889652 12566463
-0.11695639 0.13816309 -0.36478004 6129065
-0.12149617 0.070051149 -0.07039459 3034222
-0.12371194 0.11091559 -0.34220892 9686515
-0.13336901 0.023516158 -0.23923588 3948895
-0.13189736 0.076792881 -0.26179281 13026501
-0.13736835 0.021358266 -0.23751473 6713699
-0.13246579 0.065679953 -0.24290586 3487307
-0.13340795 0.11551408 -0.33157265 12631997
-0.14143415 0.068759747 -0.30272904 8769535
-0.13801238 0.064348802 -0.24756569 4344690
-0.14318438 0.065517135 -0.30100152 13486538
-0.14519416 0.024600644 -0.24698378 11393532
-0.14311515 0.044022948 -0.24105594 12703224
-0.14649284 0.066938236 -0.2591579 13158602
-0.14784202 0.080609821 -0.28939822 4018039
-0.15012287 0.098657042 -0.30382967 2972030
-0.17277399 0.029529981 -0.33884779 2631494
-0.15749979 0.096940145 -0.29933226 12369094
-0.17493023 0.060355619 -0.28875646 10801397
-0.17682217 0.078588486 -0.28145754 3882072
-0.17681223 0.091828287 -0.28987178 2040118
-0.18241833 0.031626493 -0.25365224 1785448
-0.18713088 0.053526249 -0.2739512 10998776
-0.18459681 0.077650756 -0.27806321 7504739
-0.19038798 0.040541898 -0.26431262 13163773
-0.18984714 0.053069759 -0.2711584 3297137
-0.18863039 0.066900812 -0.2658821 1123656
-0.1895241 0.059752528 -0.25693277 12435129
-0.192976 0.055050146 -0.25682387 8225908
-0.19534679 0.04613715 -0.25191483 1977415
-0.20011762 0.038822826 -0.25619671 8357492
-0.20497648 0.031167198 -0.25025848 11787506
0.17735332 -0.033887304 0.088503122 11787506
-0.21566091 0.055101149 -0.26572308 13493757
0.050311044 -0.02462022 0.04104498 3756397
-0.22199641 0.067489885 -0.26021385 1913692
0.16226165 0.077930987 -0.1685027 7772100
0.16106145 0.078311726 -0.16806196 6920386
0.16001026 0.074237466 -0.16632104 1449521
0.1568028 0.075995609 -0.16230707 13223880
0.15377931 0.08033365 -0.15974776 5068872
0.15128008 0.067076363 -0.1519015 3754077
0.14767532 0.070196956 -0.1529005 6781794
0.14880921 0.067394122 -0.14953388 2766666
0.14905098 0.082617931 -0.15311177 11589883
0.14510672 0.064207502 -0.14674778 1383983
0.14198257 0.087795503 -0.15849008 4937547
0.1438617 0.077742651 -0.14870679 5530490
0.13304044 0.10171354 -0.1631493 11458298
0.13396457 0.093923897 -0.16038574 1909278
0.12978841 0.10507663 -0.16359781 6644841
0.13278402 0.03712314 -0.11571174 6448476
0.12220658 0.055058461 -0.13532366 7107449
0.11967716 0.057210419 -0.13255388 13292745
0.11831811 0.097747095 -0.10627706 13292745
0.11440326 0.11966979 -0.15056768 14938107
0.11204366 0.10689756 -0.10552878 13489105
0.10763689 0.061741468 -0.11704125 13489105
0.10321301 0.064647041 -0.1091858 5802685
-0.13934691 0.15341705 0.27668375 6864372
0.091510125 0.069131337 -0.11207682 12632254
0.084367953 0.088578343 -0.12605019 1776686
0.081738919 0.083418414 -0.11634239 11776945
0.077858947 0.086476631 -0.11495799 12237498
0.079913877 0.11192581 -0.10076308 12960708
0.041607052 0.063569508 -0.0019867795 12896455
0.066617519 0.14765666 -0.15384302 10790301
0.026663091 0.0039638621 -0.033285953 2764363
0.026348192 0.0082127852 -0.037081741 2764363
0.068211004 0.12795083 -0.12842031 1909288
0.060093932 0.14863765 -0.15655087 9079935
0.063358583 0.12706375 -0.11953849 12171954
0.067881368 0.11857711 -0.092131607 11117726
0.041585471 0.063321784 -0.00031358653 1317175
0.061924033 0.085483588 -0.10561018 11052962
0.055736952 0.10219654 -0.10219215 5527164
0.029797973 0.018736208 -0.017035786 7043937
0.03845562 0.070302963 -0.022440216 6207734
0.030244587 0.019229345 -0.0055966238 2765911
0.055277187 0.078559101 -0.056184776 7322102
0.045261864 0.11685737 -0.10621096 7322102
0.034364127 0.038028516 -1.6331422e-05 5009829
0.04985689 0.12580857 -0.05429107 4542576
0.017915394 0.14663538 -0.14361267 2898014
0.043655943 0.085136563 -0.036633953 7636074
0.04562768 0.058747306 0.018917846 3092797
0.040454179 0.078207515 -0.0049431436 5198700
0.012122943 0.14467497 -0.12683703 5198700
0.041685779 0.063158758 0.00032747255 5074844
0.055364814 0.075705282 0.092355087 5330547
0.059781618 0.11986145 0.073452286 8031083
0.0049854275 0.14090846 -0.11466354 5329518
0.040384524 0.054119911 0.057484016 2303033
0.036317151 0.092291176 -0.11086885 3555946
0.013231224 0.12619321 -0.056808062 8226421
-0.0061387452 0.14303258 -0.11462964 2367804
0.03431727 0.098148212 0.03693198 7368326
0.014085899 0.12843007 -0.03698666 9621759
-0.0052610757 0.13983846 -0.097057611 7504488
0.063432716 0.044444691 0.17973 10540541
-0.064032301 0.17414013 -0.25655439 3422540
0.089863114 -0.027935166 0.38009152 4807804
-0.084279746 0.17919388 -0.30505064 9360127
-0.10605218 0.18285035 -0.3370243 4012883
0.17667936 0.17643364 0.47311181 5472172
-0.17618793 0.20926458 -0.53004044 7323642
-0.22418001 0.21275993 -0.70157796 1914463
-0.42686218 0.30530074 -1.2852237 3160670
0.42981207 0.28320506 1.4138838 3160670
-0.60374933 0.39176628 -1.9646721 2829634
-0.016798681 0.068262808 0.13142805 3498376
-0.54203111 0.25022495 -1.8271768 3498376
0.34179631 0.28621694 1.3066539 8569582
0.002231484 0.089767195 0.25088039 7960963
-0.097501837 0.15637971 -0.2078031 3816006
-0.050045624 0.11786101 0.14009875 3816006
-0.32916167 0.22593835 -1.0947641 10207466
-0.063831635 0.11808144 -0.057545427 1249577
-0.2474391 0.22840929 -0.75904244 8702975
-0.23920882 0.23021969 -0.74810266 8504319
-0.30082622 0.17361671 -0.95163381 8699628
0.036535997 0.20362647 0.30011335 4018548
-0.10446784 0.17631517 -0.25436708 11381686
-0.23832197 0.2181436 -0.72700065 7506020
-0.19889833 0.2372058 -0.64096987 4677248
-0.20314069 0.24102883 -0.6525588 8766442
-0.11627931 0.19475032 -0.31052533 3095869
-0.010779865 0.1677655 0.18290193 3689585
-0.11864483 0.19389731 -0.31029683 9816820
-0.16287389 0.18204929 -0.4549129 4414323
-0.047536239 0.16520047 0.035591934 6250864
-0.096127868 0.14081636 -0.14380446 3693694
-0.094157629 0.13777354 -0.1320868 9815539
-0.11997049 0.16616453 -0.25841823 4355492
-0.071027093 0.15219097 -0.017382754 14540253
-0.15481509 0.1843922 -0.397733 9089245
-0.073853642 0.15279406 -0.020402376 3025985
-0.14168055 0.16835536 -0.33284897 3697044
-0.10917532 0.14980818 -0.1799207 3697044
-0.082307301 0.15109152 -0.04088369 3233408
-0.14050324 0.16670431 -0.31308842 3233408
-0.08824911 0.14877796 -0.053323012 12829122
-0.097784512 0.12977655 -0.051860023 2303042
-0.11713076 0.14776388 -0.17640224 2303042
-0.13228774 0.16384754 -0.25934002 6457519
-0.12149327 0.15203686 -0.19482237 6186838
0.052764196 0.064271361 -0.035055481 3493221
-0.1073289 0.071587265 -0.0049618506 12170676
-0.13505444 0.16198464 -0.25689432 4013908
-0.095273666 0.12353972 -0.047138117 12895167
-0.12200547 0.1503552 -0.17249724 12895167
-0.12812495 0.15441862 -0.19577467 8965887
-0.09876544 0.12684152 -0.060779653 10541823
-0.10086664 0.12525421 -0.059631135 7698535
-0.12474049 0.15016089 -0.17016757 3687784
-0.10334671 0.12591185 -0.064676099 13618638
-0.1046776 0.12844309 -0.072868645 8093293
-0.12555973 0.15013218 -0.16983624 3816533
-0.12555973 0.15013218 -0.16983624 2435648
-0.12651411 0.14905287 -0.16386423 11195896
-0.11844736 0.1415509 -0.12841478 11195896
-0.11238714 0.13164672 -0.090870515 11064307
-0.1116045 0.12831828 -0.080804989 4154243
0.12286472 0.037782781 0.065588295 12638199
-0.12415893 0.13547455 -0.11111289 10539516
0.15350212 0.032626305 0.2010311 11646642
0.34109727 -0.11737506 -0.41636458 12511487
0.34039453 -0.11527008 -0.4172982 12511487
0.33996108 -0.11632503 -0.41748637 2832459
0.33548328 -0.11295117 -0.4233866 12441582
0.33130568 -0.11042383 -0.42983851 7051455
0.32919604 -0.11225862 -0.43158281 1581877
0.32891339 -0.11512803 -0.43167144 14210009
0.3244352 -0.11753434 -0.437217 7307627
0.32555795 -0.098342322 -0.43052217 3225674
0.32350552 -0.11562774 -0.43752477 7176550
0.32389331 -0.10400351 -0.43167195 2766664
0.32328364 -0.092280075 -0.42633256 11326198
0.32064685 -0.11500657 -0.43710116 11655163
0.31869748 -0.11376041 -0.44096941 11589373
0.3174918 -0.12031687 -0.44450125 1250576
0.3174918 -0.12031687 -0.44450125 5921870
0.31360912 -0.12898439 -0.44803432 2698792
0.30984083 -0.12725179 -0.45328924 2698792
0.30942738 -0.055232979 -0.41132221 3356221
0.30829287 -0.044495106 -0.39943865 15069695
0.30493495 -0.041706149 -0.40024149 4805197
0.29106051 -0.13208829 -0.48765647 2304580
0.28210098 -0.13309869 -0.51045215 15069177
0.27967674 -0.13924176 -0.50454932 3160646
0.27710685 -0.13831161 -0.5150879 4281683
0.27219146 -0.1428948 -0.52403253 1711922
0.26435229 -0.1445823 -0.53717816 5143979
0.25943831 -0.14287429 -0.53859782 7784446
0.26026544 -0.059171107 -0.48984548 4023201
0.23592782 -0.15568003 -0.59591925 6777958
0.25025553 -0.057342555 -0.52110612 13224393
0.23473157 -0.24236846 -0.52078295 1776688
0.23470336 -0.24243651 -0.52218097 8423034
0.25217459 -0.056357671 -0.49184337 12172993
0.24791045 -0.05775008 -0.51647937 12237749
0.24452114 -0.05868898 -0.52434981 2041925
0.24407385 -0.058734596 -0.51881701 2041925
0.22483763 -0.1579497 -0.59795678 11908531
0.21873927 -0.15891437 -0.62959588 2041159
0.14092475 -0.047092184 -0.45389837 7973589
0.21469066 -0.2307518 -0.5788005 7707334
0.2141775 -0.16068913 -0.64737171 5789822
0.20687464 -0.24097297 -0.60979295 6781792
0.21488625 -0.13454325 -0.58030528 2436433
0.22322018 -0.077400163 -0.52501345 5206951
0.17875883 -0.22951475 -0.66774482 7635052
0.21630856 -0.038415994 -0.48044929 4739955
0.2156394 -0.028821737 -0.46217793 3355200
0.16697994 -0.13767152 -0.77722824 5203608
0.15149543 -0.1820302 -0.82743573 2302011
0.13587004 -0.15470573 -0.8992852 8489589
0.16596042 -0.05380854 -0.65919989 5396341
0.10840153 -0.19496392 -0.97846949 4016481
0.12788905 -0.16617601 -0.75221753 6928634
0.12728417 -0.063682362 -0.85641241 2436946
0.13804179 -0.074441463 -0.73788834 7915519
0.089382656 -0.19979928 -1.0953562 8029806
0.062589809 -0.21427871 -1.1768612 12039619
0.1177821 -0.089926027 -0.73937505 9687551
0.14858674 -0.06539429 -0.47844523 9555966
0.12322686 -0.10634661 -0.62610716 6644349
0.098269962 -0.061119121 -0.94138891 3690610
0.14986046 -0.058074817 -0.44175953 3690610
0.076637246 -0.18554458 -0.8413173 3946836
0.1652237 -0.071064703 -0.20949264 8962802
-0.14205654 -0.37523267 -2.0926564 5800880
0.16518344 -0.023278553 -0.2463803 9029624
0.16053563 -0.027972041 -0.25620008 12631227
0.16832009 -0.01958237 -0.20894046 13618387
0.2125331 -0.10127201 0.15638411 4351638
0.27323112 -0.10728377 0.54158592 7586040
0.20833963 -0.023224091 0.11644123 2967671
0.25386667 -0.037954148 0.33174905 4082025
0.42379713 -0.13190919 1.1966279 2902640
0.41286951 0.2314826 0.79475468 4937308
0.22288489 0.01537885 0.13070309 8094598
0.2670531 -0.016331485 0.35281157 9551330
0.36454108 0.032947063 0.8338564 9551330
0.069715902 -0.19167629 -0.30445498 8833274
0.3472105 0.19716333 0.6766662 5068906
0.22178845 0.023175871 0.21897434 10343164
0.35219863 0.10197818 0.83263499 5070961
0.27229515 -0.11707351 0.55135864 3815745
0.28264159 -0.34783164 0.62338191 9357562
0.29029068 -0.3330926 0.67265892 3884636
0.2363537 -0.021394944 0.34842184 9356528
0.32019192 0.17443269 0.61291414 3292974
0.28849396 -0.30401239 0.67359942 5007237
0.23630385 -0.21089838 0.43182686 5004663
0.24451107 -0.2192644 0.46157181 5924480
0.14757954 -0.15114677 0.087716006 12960445
0.23163208 0.037478931 0.29755545 3420997
0.21533653 -0.063756466 0.34688836 6388117
0.23325317 0.032498524 0.32579449 7570795
0.22066647 0.016580809 0.28271383 4415099
0.27443561 0.13473068 0.4469254 8900095
0.26399979 0.08646588 0.46051264 4485531
0.24547835 -0.012655493 0.43787944 4485531
0.22245136 0.010004568 0.33275384 3358038
-0.14340998 -0.046275858 -0.21728903 12763329
0.21562067 0.0014286147 0.32548267 8698087
0.19960921 -0.055664983 0.33456787 4944539
0.21650739 0.076736711 0.3314749 4944539
0.16903606 -0.086763166 0.28337649 3629447
0.15797319 0.011596338 0.21958925 3629447
0.15240112 0.023534285 0.20117143 13290186
0.16430226 0.049717654 0.22251472 6260651
0.14957789 0.031406309 0.18742658 3755366
0.14304411 -0.0036019243 0.19487824 12500921
0.15445904 0.048738375 0.19890934 9295102
0.15521675 0.048744082 0.1957356 11131391
1.5770357 -0.15017962 -1.8980082 9426174
1.5462259 -0.18472996 -1.8650845 3881813
1.4438548 -0.29390919 -1.7456881 8900607
1.3987613 -0.31653249 -1.6760595 12697020
1.5069747 -0.098552331 -1.8238444 3425132
1.495079 -0.038389456 -1.8088946 10802935
1.3127775 -0.2001216 -1.531595 7634033
1.4029813 -0.21240149 -1.7629551 3559541
1.3621064 -0.22978103 -1.7132915 7174250
1.4527448 -0.052699875 -1.817404 3816531
1.3072038 -0.14478067 -1.6139089 2500421
1.2773598 -0.18476948 -1.6012386 2969722
1.3027384 -0.17199537 -1.6597313 11064060
1.4354095 -0.047406193 -1.842272 11064060
1.4191283 -0.038225673 -1.8106426 8489593
1.272069 -0.23791721 -1.666603 10996204
1.3877406 0.0073874672 -1.8113438 10593184
1.3888335 0.021826994 -1.816587 13165567
1.2300311 -0.26567638 -1.6285156 1783128
1.2285925 -0.20402887 -1.6244982 1844283
1.4122382 0.068225197 -1.8664972 12304318
1.3663242 -0.016262149 -1.8091822 12903675
1.3155299 -0.089433916 -1.720399 11185837
1.3477529 0.029528882 -1.8061298 2238518
1.1645092 -0.2924237 -1.5666269 12314623
1.1050346 -0.27079311 -1.4887676 12314623
1.2712443 -0.031971198 -1.7002517 2177624
1.2893828 0.093719177 -1.7420093 7640512
1.2567493 0.084937289 -1.6983784 1845561
1.2161435 -0.056814171 -1.6067679 13157321
1.2299814 0.00093560701 -1.592678 5331300
1.235792 0.073704652 -1.5966892 4017510
0.79893315 -0.48444912 -1.01792 7439722
0.7152065 -0.44139653 -0.771357 13881814
0.73975676 -0.53560239 -0.92946124 2897739
0.84378856 -0.34689996 -1.1584095 13225433
0.72254264 -0.5015406 -0.94818687 16252927
0.65957451 -0.45093244 -0.71278578 2369852
0.91189015 0.091301747 -1.2186081 2699331
0.88156998 0.10092045 -1.1106999 2568249
0.88525814 0.14330116 -1.1668742 989490
0.82342237 0.14088961 -1.0295004 2698293
0.49501106 -0.21459177 -0.53847915 13819888
0.7528699 0.32991499 -1.1653889 5266037
0.76410323 0.45768309 -1.204353 4739404
0.79043305 0.46515441 -1.2432151 2040122
