# .PCD v0.7 - Point Cloud Data file format
VERSION 0.7
FIELDS x y z rgb
SIZE 4 4 4 4
TYPE F F F U
COUNT 1 1 1 1
WIDTH 528
HEIGHT 1
VIEWPOINT 0 0 0 1 0 0 0
POINTS 528
DATA ascii
-4.1940665 -3.9780397 6.8025465 1253740584
-4.0119658 -4.0261846 6.7740545 1266679794
-1.3929863 -1.449834 7.3048558 1266677184
-1.52406 -1.5785317 7.9511709 1266677184
-3.6335824 -3.7805264 6.391829 1253873248
-1.5735258 -0.85475647 8.6496201 1262798752
0.65951616 -0.85950613 6.1888103 1263325881
3.3239553 -0.17650841 11.131984 1261942681
-3.8724082 -3.1587925 5.6966939 1248386144
3.0234649 -0.15815368 9.8877993 1263324587
0.81590801 -0.79631788 6.2673326 1249936980
-0.996288 -0.55105495 5.7066331 1262602403
0.82325232 -1.1229252 6.1275945 1263984834
0.78925568 -0.7521081 6.1550145 1249934932
-0.58362037 -2.4309685 9.2083731 1255322232
-1.1299659 -0.43868089 6.0268559 1262469787
0.83749342 -1.1807348 5.978025 1264179395
-4.5563612 1.0085051 6.1060348 1258455935
-1.5778141 -2.6545756 4.2514014 1266679498
-4.4878917 0.41626415 5.6784234 1264376504
0.73423427 -1.5032045 5.8008447 1260361091
-1.7479309 -0.38763359 2.9850717 1253747854
-3.7253392 -3.3208895 5.4999013 1260945708
0.79171318 -0.52026504 6.2634873 1251500882
2.521389 -0.084338509 9.6451712 1246537860
-4.4273252 0.62233102 5.5487804 1249438872
-2.4039578 -0.024316454 11.259984 1260956310
-2.7386026 -2.7252374 5.2653732 1265166019
-3.6599188 -2.7640018 5.4699817 1264377016
-2.7649238 -2.7338097 5.298974 1265363138
2.2019794 -1.6864535 8.0913486 1263322285
-1.7773232 -2.3563731 4.2687483 1255059034
-1.732469 -1.0569115 3.0721619 1253232794
3.1403136 -0.17046598 10.80724 1264113595
-2.737468 -1.1607828 4.0969124 1260236425
-4.9262886 1.5920228 6.5938272 1258585984
-0.90016276 -0.10897142 6.0347834 1253476190
0.37301251 -0.76491612 5.8901043 1263261111
0.4914383 -0.79995996 5.5135412 1263721148
-4.0244198 -3.3294096 5.7339611 1259319438
-3.8869338 -2.9780819 5.6376867 1262599323
3.4385145 -1.6215521 10.054547 1258387539
-4.2796507 0.2580674 5.5421429 1248383132
-3.5297313 -3.0378914 5.6750226 1260813875
-5.005929 1.632009 6.7168565 1258651777
2.7027001 -2.018465 8.6382961 1251772484
2.2592056 -1.915849 8.0915318 1256245392
-1.197228 -0.19749217 6.5728502 1248117888
-3.5356212 -2.638494 5.3164148 1264443838
-0.73114157 -0.28616315 1.8879594 1266022355
1.7630204 -2.0729434 7.1903605 1263979706
1.2024879 -1.7279264 6.7095685 1246011496
-3.5255108 -2.8622549 5.3690686 1262531989
-1.5973941 -0.18196887 3.0180888 1244430432
-1.8255962 -0.80946058 3.0170853 1259184002
-0.58447248 -0.21675193 1.4572136 1265429965
-0.30726391 -0.61407834 4.3619628 1263456689
-5.1802211 1.7804483 6.9310522 1258783363
-3.2754557 -3.7470045 6.2137656 1258374445
-2.3163095 -2.2706139 4.3983011 1265233614
-0.28349563 -0.51652467 4.8899326 1262865066
1.070244 -1.6159402 6.2560873 1251641960
3.3373814 -2.1391239 9.3800116 1264835771
-2.4789083 0.86049825 13.980511 1233678464
-3.0549188 -2.9109633 5.3660116 1260807680
-3.0857756 -2.9326572 5.4144521 1260807680
2.9914858 -1.4470496 9.6466484 1257167128
-0.040398438 -0.57212311 5.1781096 1262733999
-0.2839385 -0.5180645 4.8975062 1262865066
0.43914253 -1.0231011 5.5997205 1264115652
-0.44397315 -0.32348239 3.657701 1262339749
0.34904343 -1.2809157 5.317297 1252298342
0.35178471 -0.60923111 6.0088167 1245751420
1.7364805 -2.3078091 7.504436 1256507040
2.4815288 0.20591031 10.39548 1250583814
0.35539773 -1.42998 5.9350724 1252561514
1.9852371 -0.89137822 8.3202353 1263852225
0.9967103 -1.676625 6.2570567 1259770236
2.4396594 0.20557751 10.1797 1250583814
0.7334435 -0.31393373 7.3046489 1247576656
-1.0873272 0.29791239 6.9432602 1242331252
-3.4911604 -4.0023265 6.6511636 1259228702
1.4926635 -0.78197193 7.4355669 1263983550
0.44573018 -0.97004074 5.484869 1263984320
-0.30344877 -0.54847556 4.7244105 1262932140
1.626529 -2.0337164 6.9875026 1266414047
-1.0325254 -0.65537995 7.6995344 1262470308
-0.14149734 -0.74321526 4.6975427 1263522996
-0.53065747 -0.40195021 4.4445486 1262339749
1.2751527 -1.6571983 6.535831 1251773546
-2.1367202 -1.2806354 3.6232693 1252706956
1.204458 -1.7058328 6.1951218 1256247980
0.62895894 -1.1562735 6.1445646 1263853248
-1.1493952 0.13209344 6.4596677 1243380860
0.48693359 0.31944281 6.6036525 1249673828
-0.069919422 -0.73374683 4.788291 1263129779
2.4184775 -2.1658115 7.3385139 1262531983
0.71076572 -1.4514302 6.3274684 1253214394
-0.96630478 -0.38088575 7.7379961 1246537880
-0.079456672 -0.72678447 4.6877532 1263195572
0.50043166 -0.59405798 5.460474 1248117904
0.689937 -1.379292 6.0244751 1253214394
-1.452938 0.50860214 8.5277729 1242332308
0.15616275 -0.84148854 5.0701141 1263261625
0.42669079 -0.53374302 5.0273142 1247330452
0.16811594 -0.85492057 4.9624939 1263852227
0.24205808 0.15078126 6.5605211 1241542812
3.0264797 -2.1842158 8.0172901 1260691338
2.8058312 -2.302794 8.0636187 1262599578
-1.6416149 0.6100769 9.6265593 1238939880
0.58195406 -1.185446 5.4420447 1252038760
0.65418422 -1.4913778 5.1993113 1255325338
-1.122676 0.13504426 6.3172946 1243380860
0.67066211 -1.6099714 5.647193 1255194770
-0.051449463 -0.40950865 5.0758958 1248386212
-0.61154044 -0.37402955 4.626545 1262469539
-2.3595273 -1.3232232 3.8493669 1261223583
-0.44591358 -0.28773269 3.6130826 1262732711
1.3947775 -1.9839125 6.2186513 1247854668
1.5525759 -1.7796935 6.3258352 1260557695
1.2410723 -1.9403961 6.2129064 1255851670
-3.0642955 -2.802207 5.1359105 1260677120
-1.3573397 0.41926751 9.0986204 1242069108
0.7352913 0.35617849 7.5683198 1241041184
1.1807024 -1.6017238 6.8296781 1257563840
0.43561959 -1.2233515 5.5002298 1255980788
-0.81768608 -0.693385 5.7974486 1262931370
1.1937661 -0.61255836 6.7877312 1246013572
0.82449496 -1.7974101 5.9544744 1252035230
0.24071351 0.087905765 6.676064 1242066080
-3.1530411 0.21369824 4.5878024 1251781320
0.24127643 0.084938265 6.6856775 1242066080
1.8628992 -2.2727664 7.2031541 1261874318
-0.010690171 -0.61690038 5.1108017 1262735021
-3.2898932 -2.8084443 5.4563332 1263780761
1.1533372 2.725528 10.933163 1232134432
3.2479975 -2.4423866 8.8616819 1260823939
-0.79430968 -0.55592269 6.0994768 1262470821
0.30129567 -1.5009934 4.9648561 1257558932
-2.0591302 -0.48800823 3.2692878 1243386988
-0.71091318 -0.74613225 5.5840311 1263325617
-2.2562823 0.16141114 3.5546303 1240522976
1.2169191 -1.7552125 6.433044 1253221502
2.4287949 -2.1969647 8.085475 1258782301
-1.7192186 -2.6905029 4.5673003 1261409137
-3.0791581 -3.30969 5.971312 1262120192
0.045828372 -0.20106633 5.509275 1238401520
3.1970305 -2.335665 8.5562086 1260561034
0.16370738 -0.79426634 4.7831302 1263656638
-3.0371277 -2.771611 5.0891771 1260677120
0.097470917 -0.92608565 4.6028538 1250984544
0.44801855 0.047007397 6.7077079 1250715432
1.814809 -1.9271139 7.4107366 1255193234
-4.6978374 1.7820643 6.8965106 1260491146
2.4486797 -2.3964241 7.9524355 1262072726
1.3848492 -0.99414337 7.9130468 1262996655
0.42915735 -1.1867996 5.3490605 1255980788
0.27967572 -1.1258624 5.2062278 1253611708
0.33730319 -0.45425934 5.5453539 1252561630
1.0131682 -1.8393366 5.7273307 1257822390
0.069204181 -0.98782271 5.851109 1263327159
0.3756327 -0.36489531 5.9881682 1247052276
0.30308887 -1.7132403 5.3238683 1258845399
1.8743089 0.29662827 9.3317671 1244960940
-0.46246183 -0.73722011 4.2943769 1249929312
2.1922147 -2.0805645 6.9145603 1261940885
1.810173 0.2767401 8.8053751 1245228188
0.33472297 -0.86903918 5.3434787 1263064246
2.3833983 -2.2416286 8.0806856 1259901042
4.6888967 -2.9613979 6.59197 1252956248
2.0269151 -2.2784851 7.3102889 1262993048
2.3213336 -1.4554107 8.7729416 1253087854
0.11163545 -1.0356991 4.6566048 1252035690
-2.5013874 -2.925549 5.1791735 1266072882
0.14510196 -0.90047127 4.2660222 1254662350
2.4396992 -1.4042305 8.6903687 1259240585
-0.22606756 -0.7079553 4.0739217 1251248736
1.8951577 -1.9382 7.6094203 1253613692
-0.55330431 -0.84743088 4.731915 1252297856
0.29191843 -1.4225668 4.4132433 1258647258
1.7258903 -1.8427143 5.9175892 1262203283
0.0058210967 0.5377236 6.6981425 1247053328
0.39185762 0.34206167 6.9881124 1249152608
2.1496861 -1.1843727 7.399673 1259764906
0.09642192 -1.1386827 5.4636655 1251374224
0.092811577 -0.94019258 5.8109045 1263195318
1.5174991 3.1105132 12.860881 1234204808
-0.7299369 -0.73844606 5.6032939 1263128492
-1.9257156 -2.7816586 4.6077204 1261469465
-1.610791 -2.7611046 4.6072192 1261739098
-2.0189292 -2.4229949 4.4136691 1258073142
0.11912365 -1.221367 6.0838356 1251773554
0.2305861 -0.44994852 4.7414241 1247332508
1.9071306 0.31407291 9.5829506 1244168344
0.63523817 -1.4770149 4.3986635 1259241057
-2.7021255 -0.37287033 3.9183302 1251511920
1.3472233 -2.1911898 7.0297179 1257169070
1.0631974 -1.0185238 6.9896083 1263785914
1.7858238 0.21676169 8.9462357 1242595476
0.28327098 -1.0818772 4.988636 1250585230
-2.5385644 -0.11048716 3.5812187 1242593356
-0.4349148 -0.42049348 3.5261254 1262931117
4.6505508 -2.9712875 6.5940185 1253483618
1.264405 -1.8818078 6.4566264 1247325248
-0.53034544 -0.26168185 5.1736054 1246540952
-2.3774879 -2.8540642 5.2556124 1257153580
0.099561676 -1.0934536 5.2155948 1253479600
0.1209343 -1.0366219 4.9418783 1251638922
0.17183502 -0.67102736 5.1147962 1262998194
-0.42791116 -0.72588462 4.9374399 1263785140
1.8097361 0.20070812 9.0595531 1250856084
-3.3830736 -2.8871422 5.6248393 1263848351
0.12889858 -0.42510715 4.6625233 1247862960
2.1224542 -2.209233 7.4990072 1262203556
-0.45412382 -0.67698139 6.4309068 1262865066
0.095030509 -0.89832193 6.9652181 1262800814
3.3028409 0.46686262 11.982019 1246537884
-0.55349135 -0.84752113 4.7326813 1252297856
0.66644233 -2.6523726 7.4133844 1258225888
1.099831 1.1046273 9.9939842 1253747878
3.8848979 -1.2796472 10.985919 1258449107
2.0338824 -1.9974777 7.104547 1260164468
0.99732029 -1.4486706 5.7711263 1252036210
-3.697876 -0.0080913529 4.8777132 1250856080
-1.6407377 -1.9681257 3.5371339 1255181866
-0.70894039 -0.6290707 4.6430907 1263391150
1.0508568 -1.5857371 6.3457155 1236824064
1.8570035 -0.79506469 10.163258 1248118948
0.075006418 -0.32600367 5.6382785 1254130030
-2.7654839 -0.13969208 3.9483211 1241041008
1.1219583 -1.7280673 6.0165591 1233670144
2.3398762 -1.8597636 8.036581 1255982220
0.62570477 -1.8542932 6.0088 1255056212
2.7128072 -0.68579412 9.9035816 1263588535
-0.43578434 -0.29756665 4.8962312 1249435820
-0.52283674 -0.95324945 5.2051859 1256371410
0.46811399 -1.5140804 5.5021567 1253351550
0.17239624 -0.31573749 5.4743629 1252555604
0.64347702 -1.8243206 5.3086429 1258913376
-0.99123091 -0.85160047 6.5828557 1263062699
0.39933228 0.37167123 7.7668004 1249156700
-3.8999627 0.48315048 5.1302705 1248918772
1.0598068 -0.09522333 7.3233066 1250185544
0.24643236 0.008913666 6.510788 1246279912
-0.60874313 -0.5493964 7.7151937 1249174712
0.52454621 -1.9988947 6.3221927 1258714576
2.1106603 -2.6618319 8.4276581 1262335129
1.5302701 0.47455785 8.3549852 1244430472
1.0303051 -1.0633686 6.0929627 1264048833
2.649497 -0.21048783 10.027562 1232121856
0.038689636 -1.1563605 5.2772441 1252428896
-4.9146457 1.354539 6.4452209 1254143146
0.50338376 -1.8518419 5.8599219 1258714576
3.4076529 -2.2900922 8.6924505 1260889475
-0.6831426 -0.12390912 1.7029517 1264048312
-0.99096543 -0.28289875 6.2256613 1246808168
0.85862869 0.0083162552 7.0946093 1249923404
-0.35424709 -0.93068975 4.939177 1253083330
1.0201286 0.13865671 9.4795437 1250318146
-0.78483015 -0.31420866 5.3129158 1241545772
0.22152053 -0.38710669 5.793232 1255977856
0.24927309 -0.13919725 5.9320288 1248897620
1.0435351 0.1211327 9.7106524 1250054986
0.91247636 0.12871011 7.8521366 1248893584
-0.44458085 -0.51665217 3.884171 1263193517
1.8314604 -0.086573325 8.6792393 1251107156
1.5755167 -2.2289226 6.6750574 1263319779
0.93277127 0.099794365 7.920495 1248892564
-0.41811931 -0.47665337 5.2000623 1262602152
-0.14796904 -0.86666322 5.6184816 1263392437
0.69328278 0.61325145 7.8531404 1244436628
-3.6127639 -0.96635574 4.2850585 1249167432
-0.61110514 0.2188648 4.6269913 1242068092
-3.3508198 0.23645051 4.4845457 1244705964
-3.2982895 -1.5500003 4.4749851 1258392937
0.49027979 -1.7506264 5.3448548 1259436770
0.94506854 -1.8305335 6.3077536 1256640680
-0.22456513 -0.72777605 3.8260696 1254139068
-0.041916128 -0.81545669 4.0300908 1258515849
-0.048585221 -0.82520956 4.1063833 1249925772
-0.7649911 -0.31028584 5.2012372 1241545772
-0.47388956 -0.47423273 3.7169549 1263850931
2.9031081 -0.93476921 10.007731 1251905642
-2.3717577 -3.0914433 5.4574342 1263840346
-4.9349971 1.7145075 6.3648858 1247330476
2.4382546 -0.57849568 8.7156467 1260562057
2.1620078 2.8947368 8.9111738 1233672464
1.6390285 0.53601801 9.1904383 1247064224
1.5267841 -1.1927731 7.0335226 1253088886
0.24073365 -0.035344068 5.6761742 1241542912
-1.023816 -0.40690643 8.1399479 1246537880
-3.5539916 -1.0387622 4.2607007 1255987346
3.3687685 -1.2681803 9.1080494 1259571109
-3.8979065 -0.57346469 4.5740695 1250187302
1.7832013 -2.3215809 7.0526996 1262331850
-2.0013351 0.28236198 5.3761568 1260365196
-0.51675659 -0.31276581 5.6602173 1247856820
1.6865522 -0.24337389 7.0993958 1247590544
-2.3065746 -0.733675 3.2050505 1258099928
-1.7136223 -2.5398774 4.3391523 1261146466
1.3664148 -0.15063319 8.057251 1250710870
0.70650458 0.1530437 6.4292064 1249156728
-1.1137702 -0.66210532 2.675935 1249166460
1.8514291 -1.7048696 5.9376197 1263649974
1.7538862 -2.4606259 7.2817507 1263450608
1.0051523 1.1304619 9.5255165 1254142636
1.1414009 0.20957378 9.4769163 1250975566
-0.42008573 -0.26433739 4.8845291 1246541996
1.2404298 0.049634226 7.8986206 1250581334
1.4093277 0.047488097 8.5599508 1250053450
-2.097734 -3.1138759 5.3372164 1260947024
0.41464445 2.6941988 13.990484 1238939872
-0.51860654 -0.81826931 4.0385017 1254928998
-0.49941403 -0.47913873 3.5263917 1263258541
-0.11806853 -0.9917115 4.9865589 1251904150
-2.9169786 -3.8080761 6.788538 1260024884
-0.31706035 -0.87937599 4.6451569 1258516617
0.52656454 -1.7071571 5.4672112 1259768016
-0.40380836 -0.48467058 3.6257641 1263127978
-0.32086843 -0.96045697 4.7475657 1251641936
2.3031378 -2.5605366 7.9085612 1264041967
2.2395244 -0.69874763 11.284979 1247856796
2.6798356 -2.7989583 8.9726686 1262069678
1.040424 0.15853764 7.9888577 1249156756
-0.027217373 0.44530475 7.8034401 1249926438
0.46416354 -1.4588878 5.292851 1254009480
2.5673885 3.53912 10.858766 1235251496
1.8250277 -2.3136346 10.531743 1254404746
1.7715045 -2.5981579 7.3895764 1263583218
1.7756218 -1.0321928 8.1538763 1261812383
-0.05442648 0.96942765 8.4100742 1237362872
-0.14401317 0.56860739 10.720702 1246005752
0.19815055 -0.19572078 6.0657163 1249922360
1.5018173 -0.1030992 8.0672684 1250449744
1.6378787 -2.2363012 6.6076808 1263648242
-3.6810074 -1.0844815 4.4350538 1255855760
-2.1547964 -0.90319568 3.4501014 1259973771
-0.011579074 0.95143074 8.4466648 1237891192
1.9209822 -2.755044 8.148242 1263253229
0.6725632 1.2545739 9.3937635 1237350496
1.119066 -0.89997256 5.7707262 1263654587
-0.037037443 1.0267282 9.1244764 1237891256
2.4996691 3.4258566 10.535404 1235777856
-1.2991602 -1.8805631 3.417762 1265957591
1.9721519 -2.8524601 8.0654907 1263649265
-2.5456681 -1.2990704 3.9410615 1260237198
-4.4228039 0.70838493 5.6247535 1249703152
-0.38960397 -0.49481517 3.4459758 1263784116
-0.90400606 -0.33377451 6.4252439 1247595652
-0.45450455 -1.0407126 5.5631518 1257422078
-0.23185976 -0.28963131 4.7142816 1250059360
-2.9147041 -0.51049197 4.3213797 1246550248
1.5021834 -2.2133811 6.9533877 1250194490
-1.522543 -0.22342777 3.383688 1261546900
0.53824919 -0.30045816 6.4260592 1250053946
-4.6850495 1.8741452 6.5434127 1256249572
-4.0957842 1.4219315 6.3066921 1253615252
0.41778538 2.770191 14.443171 1238939872
-0.12620211 -0.80181438 4.1953936 1254799524
-2.216908 -0.93983871 3.508739 1259842185
-0.16028161 0.29241756 5.5467792 1249687104
-4.8113031 1.9201874 6.7360916 1257432816
-1.6059213 -1.7628107 3.3326688 1265498842
1.01491 0.07422179 7.5057859 1249922894
-5.3962178 2.1346405 7.628499 1258222840
0.75257498 2.097589 11.509188 1238411440
0.28270105 0.58831537 7.9891567 1248108008
1.671891 -0.79513752 6.5119481 1248125068
-5.829011 2.3129272 7.7065272 1250990268
1.6857951 -0.057201516 8.6606598 1250843980
1.904881 -2.0063229 6.2031941 1263712741
-0.47389996 -0.5814544 3.5218568 1252168292
1.1774057 -1.8728818 6.5739245 1252300914
-3.0448108 0.38882077 4.561008 1248658720
1.0026923 -1.7107273 6.1815104 1263914940
-3.0870678 -3.2464211 5.6437969 1263834112
-3.4997387 0.2495407 4.6358042 1247859908
-0.084394813 -0.48453227 5.1340432 1254410400
-2.294894 -1.586978 5.5216594 1259249022
-1.1627259 -0.70448905 2.7777262 1249432708
1.7787288 -1.6590157 9.1079969 1252695156
1.6066642 -1.8292032 8.4400082 1254536332
-3.3401861 -1.0828899 4.113502 1257173164
1.1117506 -1.7421675 5.1589799 1259834241
-0.4161028 0.48013267 7.8738866 1249156660
-3.0184414 -0.036053549 4.1719837 1240516784
1.4853495 -1.5290248 6.9897203 1254667918
1.1189468 0.036231667 7.8020835 1250185036
1.3830433 2.0805647 12.740299 1236832408
1.3087014 -1.3786899 6.4939632 1253746816
-1.7163949 -0.6711719 2.8719573 1252442260
-0.35924506 -0.19822152 4.8585095 1252949820
2.2567399 -2.5100791 7.7635736 1263976168
1.9191298 -2.1472907 6.4501076 1264438510
1.311345 -1.2789809 5.8940763 1253878402
-0.16907199 0.29601938 5.6685739 1249685076
1.0939542 -1.3180768 6.3180056 1253486206
-2.2547832 -0.46860951 3.521229 1243913332
-2.3910024 -1.6492805 5.7661514 1259249022
-0.42429227 -0.93737185 5.2644882 1251512416
-0.17136809 -0.89513469 4.5786066 1255850208
1.3435142 -2.2835326 6.7741685 1259768446
0.080222316 -0.54309964 6.0099759 1246808220
0.31653154 -0.22104174 6.0175343 1250054962
1.2278594 2.8863823 14.227529 1238419688
0.057697721 -0.67952669 6.0648584 1262602158
0.28790495 0.48585662 6.5313821 1249924356
-3.1010733 -0.13638668 4.1914711 1243115592
0.61393082 1.4319978 9.659955 1238935728
-0.11309642 -1.8883908 6.0354152 1255061628
2.2132506 -2.6070814 8.1316738 1261938606
1.0743443 0.46607596 8.2130175 1242329188
1.6192944 -1.4132793 6.9399614 1253747324
-1.602681 -0.2338594 2.7705002 1244169308
-0.15159217 -0.80514085 4.9290886 1266020830
1.6025261 -1.4158834 6.7151585 1254668426
-5.3603587 2.3143122 7.2063141 1257702172
0.0081267748 -0.83828551 4.8381028 1265561302
1.7493957 -3.1061873 8.0347977 1264374257
1.2175069 1.933153 12.469467 1237878928
2.0432556 -2.8832307 7.8664021 1264307956
0.47440305 -1.4646269 4.0666771 1258782301
1.3024896 -1.4007361 6.3617611 1252562542
-0.063414618 -0.39583039 4.3595405 1254410400
0.023866573 -0.84453839 4.9588408 1263589043
-0.13407128 -1.0360775 4.907136 1252033122
-3.4044533 -4.1312666 6.7858057 1266599437
-1.3216083 -0.19720203 2.9091957 1261744533
1.3671134 -1.3614504 6.4805751 1253483644
0.23803078 -0.98701096 5.0699162 1242597416
-2.7886462 -2.8511474 5.2220101 1261333771
-3.9999454 -1.5810026 4.6801896 1250987088
-0.44859609 -0.40454587 7.6048141 1253609762
1.8445638 1.5348737 12.049463 1235253376
0.061991774 -0.82694232 4.7717819 1263719871
0.60967404 0.65755254 7.3127704 1247857872
-0.65253669 -0.20097016 8.6960678 1234195080
0.0048703863 -0.068347163 5.7506757 1249152572
0.4821659 -1.4002408 5.6561375 1253876342
-4.6174402 1.230408 6.129796 1260163983
-2.2126155 -0.69248396 3.1876101 1256654030
1.0803492 1.6055728 10.979056 1237878928
-3.6147425 -0.3598735 4.458725 1244434500
-3.0850022 -4.6296577 8.2662601 1259239756
0.50675529 0.62192619 8.130661 1247861964
0.37247276 1.3862005 6.6443071 1228976368
-3.9489224 -0.33298051 4.7701292 1250720338
0.24634817 -1.2563974 3.8397672 1258844637
-1.7001238 -0.24180703 2.9512792 1243906124
-0.16090061 -0.88090712 4.4890857 1255323860
0.23009925 -1.0342115 5.3404727 1235251200
1.6373456 -1.9754797 5.5368447 1264439028
-2.5177603 -0.97953492 3.7570128 1259906952
-0.85296661 0.10572899 5.7534447 1243123816
-0.010271477 -0.017024275 5.8227973 1249679960
0.033821382 -0.0049770386 6.1906891 1246261740
0.57644933 -0.24176858 6.5317702 1250448702
0.74533629 -0.38377747 6.7538147 1250319142
1.1895571 0.31590229 7.8394008 1254012596
-0.56628942 -0.43147257 5.5733585 1264574923
-3.3107512 -4.7212768 8.4256163 1261213286
-3.8298581 -1.3107741 4.5645123 1253750392
-0.11124008 -0.15792435 4.5350504 1251504948
-2.5932498 -0.47716805 3.9064767 1247076596
0.96745265 0.61661208 8.4802723 1243644036
-2.7606802 -0.76219553 4.2129111 1243657400
2.6125929 -0.92515635 9.7263374 1249174656
-2.0288804 0.16675508 3.3834655 1249183096
-0.51695842 -0.26109242 6.2399893 1253081942
-5.8600278 2.5933101 7.8615594 1258457237
-2.2894835 -0.94082999 3.5094976 1259907463
0.061820984 0.0464864 6.2082653 1245734424
-0.11783271 -1.0517703 3.3943799 1254138988
-0.34325436 -0.12723851 5.8163466 1227900016
-1.0739899 -0.29502678 8.5237103 1251241788
1.8156862 2.6911094 7.2662435 1239482856
0.78000742 -2.2351196 6.1029572 1262202586
-2.9516332 -0.43006456 4.0666242 1245749340
-2.9550209 -0.43189088 4.0728698 1245749340
1.2927235 0.13449642 8.1299791 1250711366
1.3345609 -1.9818888 6.1087108 1261348489
-0.014233502 0.010952679 5.9334984 1249922858
-2.8106911 -0.72684085 4.128943 1244973252
1.3689744 -1.2772081 6.1481004 1253615230
2.2752464 -0.13999052 8.3191071 1255724718
1.2147406 -1.4804568 6.1974983 1235240960
-0.01379303 -1.2345746 3.9358845 1255060616
-0.52554297 -0.085210577 5.1037412 1254927200
0.6403026 0.74078882 8.1902714 1247856860
0.51924485 0.68548971 8.9629545 1241053432
-2.1719692 -0.32288817 3.3885849 1242330200
-0.6037969 -0.099561028 5.6748385 1255979888
1.2892435 0.36013213 8.8935604 1253486758
0.50146741 2.5656154 11.332435 1234735280
-0.78431749 -0.86011428 5.2669134 1253353076
1.9419107 2.9204404 7.8723025 1240537616
0.19135536 -1.193819 6.2305942 1244962892
-2.0013263 -1.0433924 3.3178802 1259447174
0.7578873 -2.2745271 4.7534676 1264640709
-0.46332598 -0.23621283 4.6846852 1248118948
-5.9861069 2.6592503 8.0336342 1258589590
4.1985526 -1.4887564 11.162693 1259502025
-2.0471547 -1.3705226 3.6266997 1261155984
-2.7962687 -17.620062 33.841095 1266679804
-0.45413667 -1.937355 5.7976422 1255062676
-1.3677726 0.95205492 9.6661377 1238417648
-1.928409 -0.54505998 3.1287227 1242860640
2.7795641 -1.4362019 8.4913244 1257955994
-2.0061979 -0.26790071 3.2011929 1241804876
0.13306755 -0.8312251 4.5446534 1264376006
2.2885578 -2.7460258 8.3851385 1263582692
3.1187491 -1.4365385 8.3005257 1259898974
0.50557798 -1.687968 5.803473 1250714288
-1.9681427 -0.65243638 3.0801783 1254678712
-2.6033723 -0.67208022 3.7919755 1244974280
-2.5549698 -0.68190384 3.7099252 1244449992
2.9343042 -0.33181423 11.455967 1252829826
-2.9340832 -0.70536047 3.6566737 1246541948
-2.0312424 -1.3907223 3.6164522 1261550742
-3.563081 -3.3974414 6.0995865 1263439616
-0.36097571 -1.6788744 4.9878812 1255063690
2.1720185 -2.5330892 7.947618 1259899010
-5.0145068 1.9787322 6.7423553 1256252150
2.450963 1.793435 13.268044 1239472360
-3.1961887 -0.84567994 4.806551 1244710088
-2.6182296 -1.0344975 3.794111 1259052924
-0.15307736 -0.42611784 5.4831181 1247593616
-0.87887251 -0.84312236 5.8126626 1264573887
