# .PCD v0.7 - Point Cloud Data file format
VERSION 0.7
FIELDS x y z rgb
SIZE 4 4 4 4
TYPE F F F U
COUNT 1 1 1 1
WIDTH 1095
HEIGHT 1
VIEWPOINT 0 0 0 1 0 0 0
POINTS 1095
DATA ascii
-0.07593333 -0.019827006 -0.36407074 1266614269
0.19971164 -0.081446938 0.17082852 1248919820
-0.13830881 -0.019028423 -0.5205574 1256647396
-0.077316709 -0.070265904 -0.18547572 1259442577
-0.034416348 0.038453311 -0.25826272 1255329992
0.011683852 0.056537297 -0.14781338 1258392973
-0.13977848 -0.041115608 -0.51016247 1259903380
0.2929745 -0.10509492 0.39690068 1244179644
0.099467903 0.0065179844 0.03872982 1242863784
0.10318704 0.0066738497 0.046771403 1247073492
-0.16226617 -0.046698447 -0.56501621 1242600612
-0.11569329 0.019371599 -0.48121569 1237369040
0.13555104 -0.011900379 0.01198836 1260034975
-0.10955112 0.050657835 -0.4687852 1259903389
-0.032150146 0.16181062 -0.3385182 1259903389
-0.032391269 0.16201016 -0.33703464 1258455943
0.027264956 0.035797715 -0.21264474 1243126948
-0.10035198 0.060048077 -0.44600445 1254803144
-0.084080711 0.085124902 -0.42390427 1240529176
-0.083748452 0.08667618 -0.41982666 1240529176
-0.031585656 0.15046573 -0.33593795 1239480608
-0.085581623 0.08100798 -0.41577971 1252567726
-0.034648679 0.15837477 -0.3404412 1251499622
-0.079652838 0.074330129 -0.40453681 1244964008
-0.088584103 0.072307646 -0.42526597 1250198664
-0.081702776 0.072796769 -0.40204337 1259574424
-0.095937647 0.07307253 -0.42880738 1259706780
-0.098692276 0.064458437 -0.40061384 1258094342
-0.085556045 0.070404723 -0.36602288 1239476488
-0.082931831 0.17723133 -0.30787143 1239476488
-0.64907783 -0.97720456 1.2358755 1241547924
-3.6577039 -1.80048 5.4362278 1240529176
-1.530978 -0.34107742 1.9772447 1248126188
-0.66387719 -1.0322434 1.4134792 1257831170
-1.1086869 -0.46023539 3.0404704 1252423788
-2.4232161 -1.5984155 4.1121469 1240525016
-1.7698997 -1.3993906 3.1153829 1260691353
-0.79614198 -0.50019854 2.2362835 1240527088
-2.9091618 -1.792731 5.0322418 1253455950
-0.36919928 -0.52329099 1.5211644 1259771794
-0.16104719 -1.1444315 1.3825568 1252962522
-0.21208096 -1.0989041 1.3299737 1238950144
-2.0150416 -1.6403676 4.0673566 1240516784
0.10338531 -0.010236849 1.8704249 1258982028
-2.3116512 -1.7519262 4.7393198 1259376786
-2.0789475 -1.7038881 4.6035194 1237369040
-1.681729 -1.598894 3.9517028 1237895384
-1.4298545 -1.097365 3.1620843 1258224380
-1.3415351 -1.0140891 3.093353 1255724250
-1.7566059 -1.661713 4.4169703 1258784649
-1.479625 -1.6254307 4.1390872 1236838592
-1.0730286 -1.1951126 3.0689662 1234733232
-0.89154714 -1.0215936 2.8509498 1252961480
-0.0081578558 -1.2344737 1.7252656 1252961480
0.14603385 -0.8578546 1.7895051 1258521736
-0.75359434 -0.92792797 3.5873928 1258455684
-0.4735156 -0.87505311 2.8975909 1257248844
-0.18035115 -0.93643606 1.9317751 1256385264
-0.26565054 -1.0720168 2.8297389 1258388858
-0.015876869 -0.81706786 2.0170484 1234737320
-0.15423407 -1.0875578 1.7034357 1257830652
-0.60332984 -0.25943905 2.5813768 1237883064
-0.011719481 -0.88240176 2.061357 1237883064
-0.060950439 -1.0834444 2.0923283 1237883064
-0.39355522 -0.37047109 2.5441132 1254932680
-0.64181483 -0.62902689 2.7814479 1255153226
-0.48645866 -0.53811824 2.676162 1234198656
-0.39616269 -0.6253016 2.6869252 1244176548
0.1850667 -0.77775449 1.8481565 1257041136
-0.58749074 -0.60274523 2.7706604 1258452081
-0.46328738 -0.85030961 2.7789507 1258452081
-0.44761965 -0.78562772 2.7634921 1256499874
-0.38307467 -0.77658957 2.7439768 1256509146
-0.46782115 -1.2736402 2.8168557 1256120030
-0.2491297 -0.58171499 2.6219347 1256116446
-0.31942993 -0.70065439 2.6985767 1256116446
-0.32735452 -0.72632736 2.7101059 1253189710
-0.32046306 -0.50445491 2.6310463 1241537640
-0.34244061 -0.85556614 2.7455802 1241537640
-0.47885042 -0.70353633 2.6958919 1232130272
-0.31226453 -0.8011331 2.69631 1232138480
-0.29520863 -0.70231473 2.6647081 1232138480
-0.46856588 -0.72670579 2.6766069 1238925504
-0.42661899 -1.1864707 2.6975977 1250429994
-0.21743855 -0.45523196 2.5077283 1250429994
-0.30478847 -0.79415137 2.6620114 1256771800
-0.33044273 -0.77378637 2.6534352 1256771800
-0.44858623 -0.66279858 2.6231079 1255815254
0.074853398 -0.74356031 2.2584555 1254272188
-0.30045104 -0.67936838 2.5824461 1254272188
0.14287728 -0.48361859 2.1532278 1256513766
0.14034642 -0.45993802 2.2825346 1242057816
-0.37804708 -0.6846891 2.562012 1256119008
-0.43319446 -0.33945706 2.3758202 1256119008
-0.39981467 -0.29910836 2.3541539 1258513767
0.17089151 -0.52064812 2.382005 1232130304
0.1691927 -0.89353991 2.4293411 1253343362
0.1465237 -0.82257503 2.3539784 1257820366
0.22198308 -0.43920273 2.3111312 1256245926
-0.28295031 -0.29880488 2.2254009 1253338742
-0.27101892 -0.60868371 2.3906145 1253202018
-0.26585987 -0.61347896 2.3758204 1256252134
-0.30138528 -0.26940328 2.1955574 1237360808
-0.2424788 -0.93697476 2.319308 1233154168
-0.020574607 -0.38666812 2.2366819 1233154168
0.14603955 -0.48383024 1.9380795 1255461074
-0.10385971 -0.84588903 3.2592936 1255461074
-0.21398245 -0.6276086 2.367346 1255985868
0.29192066 -0.75405681 2.4631162 1255985868
-0.082617477 -0.94106025 1.9718486 1255065782
-0.12504147 -0.41595596 1.7731045 1255197906
0.084081419 -1.0769931 2.0994024 1250848366
0.2200464 -0.71265286 2.1775866 1266155519
-0.11429828 -0.61715126 2.3489318 1235263648
-0.12840681 -0.38146952 2.2494102 1253220478
-0.080567181 -0.90090352 2.3445604 1254015176
0.111107 -1.0269237 2.9683263 1252693096
-0.037259825 -0.74380684 2.4135661 1246014636
0.65329498 -0.37605026 2.6089778 1265298405
0.16563031 -0.37461713 2.3304229 1212219968
0.22351645 -0.79278129 2.4524546 1248649412
0.15400597 -0.30676419 2.3184993 1258917521
0.18848641 -0.32907802 2.3009644 1254934196
0.17296922 -0.32764685 2.2707286 1132658688
0.30419904 -0.67096531 2.4618154 1199637376
0.20817852 -0.34614635 2.2890692 1249936006
0.61377841 -0.35686034 2.4023857 1249937040
0.53771001 -0.38334399 2.2782707 1249937040
0.77790439 -0.30157873 2.6228287 1249937040
0.33396071 -0.40766424 2.1292732 1250726026
0.55764842 -0.36968774 2.2956927 1257304826
0.37850654 -0.42762333 2.2317734 1208042112
0.69583035 -0.3481206 2.5186787 1145176064
0.44229239 -0.43419862 2.2904634 1140932608
0.88906324 -0.2600995 2.6932318 1231089968
0.45956481 -0.40557197 2.2844319 1262864074
0.5474093 -0.44307184 2.3837671 1253753034
0.43167931 -0.27646184 2.3031483 1145176064
0.9015497 -0.59024072 2.7598546 1225826528
0.89069813 -0.2465819 2.5863297 1199604096
0.98007268 -0.36228174 2.8104265 1199637376
1.0587523 -0.2565501 2.8097818 1241811096
0.82375884 -0.47114941 2.6478407 1242606796
0.85585892 -0.55561811 2.6932502 1259312018
0.9888159 -0.56727678 2.7967558 1260890536
0.75761062 -1.0437648 2.5923619 1207992576
0.73638725 -0.85280633 2.6098888 1224761456
0.60744929 -1.2546351 2.291467 1260169129
0.57761979 -1.193741 2.169457 1260168618
0.76053333 -0.35688591 2.4612892 1264315117
0.86015797 -0.86234832 2.6101792 1199769088
1.0413197 -0.39616695 2.6420126 1261417656
1.2425262 -0.3299762 3.0759943 1264314858
1.0658691 -0.74125755 2.8660092 1263654618
1.0217429 -0.22998394 2.7674127 1263654618
1.0091926 -0.64443976 2.6384735 1216405888
1.1243876 -0.84456629 2.863898 1264312286
1.3530837 -0.52063155 3.120137 1264314088
1.4936055 -0.7210626 3.1195827 1262206659
1.5489293 -0.6871314 3.0873256 1260562346
1.5147133 -0.014612651 2.3090663 1132691456
1.3965492 -0.63583016 2.4450548 1260430503
2.7985387 0.52870816 4.405849 1260430248
1.4367923 -0.62073004 2.4375644 1084227584
1.4121395 -0.64196163 2.3943613 1260956592
3.2458384 1.3202814 5.3732791 1263654610
1.6591926 -0.48308086 3.1557755 1216405888
2.3536413 -0.74454415 3.7553573 1218494816
2.1058962 -0.59835804 3.6085446 1261021871
2.7228427 0.070159502 4.2443299 1261877945
1.6088809 -0.54649013 2.3506472 1255857380
4.3377151 0.74197763 6.1497855 1252437178
1.6913446 -0.15245044 2.2080517 1242339500
2.270752 -0.5592252 3.7198322 1199637376
2.3502662 -0.43864837 3.5992522 1253885122
1.9992903 -0.32478479 2.6488626 1260101534
1.7729415 -0.401052 2.2988164 1244705988
1.7177765 -0.353113 2.2006831 1245232324
2.7816768 -0.47405246 3.7279778 1258585977
1.8575196 -0.45899054 2.2550993 1255726290
2.700928 -0.30251497 3.6692777 1240002832
21.391617 -10.121459 -12.21801 1255988448
22.494297 -9.8444834 -14.142125 1255988448
21.869793 -7.3548026 -9.8540421 1258455684
20.454229 -8.7236834 -7.805119 1258521736
-78.241806 -8.5261526 98.940857 1235785904
20.502388 -10.43109 -10.559011 1257304826
-43.150761 -13.675174 65.942741 1233154184
16.610821 -11.331625 -2.5151672 1254495810
21.761089 -9.7515678 -13.492837 1254495810
-47.12619 -20.895351 63.686359 1256251620
-46.276283 -20.419243 63.300694 1248387308
-43.582111 -18.206383 59.469864 1255325894
19.940424 -10.509355 -9.9454918 1255591632
20.879971 -10.028247 -11.955944 1255591632
15.085345 -3.5702941 -17.669245 1248920852
16.446083 -5.7674098 -16.647717 1240518872
19.805531 -10.198172 -10.492933 1232113872
17.145334 -14.273193 -10.485245 1227927760
15.852789 -13.769504 -5.8805313 1227927760
19.134485 -10.306254 -9.2906494 1238409392
7.0088391 -14.211045 10.607948 1255722192
-12.728895 5.004735 36.989269 1254273210
13.78268 -9.7873631 5.5255861 1249119292
14.23813 -9.435236 4.835875 1254804170
-7.0784345 7.8063335 20.876732 1255593690
8.3666973 -16.677334 16.540903 1255330518
6.7788115 -10.836474 4.2882547 1255330518
-8.1225348 -1.1494099 23.14702 1235243152
6.3017426 -7.0027313 -1.6059842 1227927760
-11.8563 -15.490408 37.77985 1247860956
5.4224672 -11.118713 15.870151 1251502184
10.778901 -4.9344678 -19.77895 1255717018
-1.5241382 2.0018148 2.7626765 1252940904
-0.64833903 3.8709188 -0.43939301 1254673106
-0.92766976 3.3465834 1.8240861 1231077584
12.486718 -9.1440029 13.341505 1231077584
-0.48425493 3.5702684 0.37836832 1254276800
-0.49479944 3.5376291 -0.14358322 1254276800
-0.6043781 3.13904 -0.52557105 1254671558
-0.33125022 3.4525132 0.43778524 1254015676
-1.2491733 -3.1820207 13.662273 1250191462
0.040322654 -9.6404371 45.296581 1251120264
-0.26726782 3.1269262 -1.4522485 1251252370
-0.12540737 2.2922521 -1.9410079 1264180952
-0.14345194 2.2465985 -1.8769757 1260957095
0.14247869 2.2610226 -3.6035137 1243654308
0.065058768 2.1088784 -2.9987488 1264641762
0.23458037 1.848218 -4.0070186 1260628132
13.908138 -8.370945 -21.710712 1265825779
13.708325 -9.9317732 14.001225 1242600604
2.0985715 -7.8545547 13.102485 1264707298
3.3223426 -8.6109276 14.017101 1241055504
13.385445 -8.584116 15.108839 1238956304
16.538246 -12.06393 -4.3911004 1266679807
15.74579 -12.367221 1.1894852 1261023149
4.0110903 -7.4097047 5.0898523 1265231824
4.0835443 -7.250104 4.8025141 1199604096
4.1304436 -6.8014603 2.4985759 1266483199
3.6451063 -9.0717754 7.1305618 1247337708
4.8016591 -7.625361 4.0734329 1248129284
15.185543 -14.852245 8.6357431 1266614014
5.9688854 -12.669553 11.363652 1260826542
2.6344678 1.0939639 34.614532 1266614015
15.17165 -14.185544 -4.5588779 1241809044
8.0207968 -8.3550014 4.2209911 1249934984
17.612333 -13.032768 5.7279592 1262534856
4.0237217 -10.74344 33.402081 1073741824
17.883604 -13.121593 6.4737048 1262074556
9.0138502 -12.301965 10.49122 1233686704
3.8083563 5.0625539 21.905697 1261285808
16.145361 -9.5052729 9.4459839 1230037280
11.480226 1.2669879 34.382778 1220600160
1.3843887 -16.215475 -27.237104 1260167327
9.1543598 3.5251608 33.691559 1240006984
0.26538086 2.5972342 3.9025764 1132593152
-0.48171794 1.9466548 -1.0370258 1082130432
13.047381 -10.760556 2.7455025 1264116713
0.30119663 3.8364384 2.7667153 1073741824
8.6588173 -2.3131814 -12.98079 1265037300
10.181491 -16.095621 -16.945339 1260693671
-1.9998242 -15.323681 -30.221123 1132560384
2.6777298 -22.03541 -33.029385 1264972020
6.0916157 -16.901272 -27.541079 1132560384
-1.1807475 -2.4266849 -6.1836143 1264050658
-7.6846089 -16.571596 -45.581722 1073741824
16.57206 -11.341051 2.9707954 1082130432
16.897488 -12.455539 -2.1990311 1073741824
-10.854667 -19.497952 -53.849106 1263656160
17.925243 -7.3323421 -4.4268966 1199637248
8.6674128 -16.59292 -21.362642 1260693420
3.0028434 -17.759001 -30.130178 1260693420
2.9835873 -17.397303 -29.511972 1073741824
4.1320305 -17.344267 -28.27285 1199571584
-3.3701854 -15.495975 -30.576574 1261152943
0.038721379 -15.640919 -34.636547 1208009152
5.3373594 -17.141689 -27.068714 1251778214
3.9718883 -18.183973 -27.245506 1242337444
18.669226 -9.4514694 7.8770504 1240002840
4.6103897 -15.608272 -25.512846 1249706256
5.8530979 -15.818212 -23.720888 1254146762
8.9559517 -13.137833 -19.265099 1252304040
19.216469 -9.3922262 9.2198982 1240004848
-8.4084902 -12.383766 -44.592331 1258718854
19.575354 -9.657403 10.39089 1254803148
19.692081 -10.127272 11.187233 1254279888
19.514727 -9.8921156 9.7058439 1260028546
20.151188 -10.159092 2.0173969 1258455944
19.630991 -10.01493 10.083228 1199604096
19.625196 -8.9415207 9.4463406 1255422036
-2.3531647 -10.537808 -24.984104 1258324355
14.290226 -2.8007007 31.220284 1258783871
20.258533 -9.8734026 2.2025139 1251898474
15.132763 0.81833172 31.821926 1256116946
21.091682 -9.5718184 3.9207528 1236842680
20.176466 -9.5165329 9.6148605 1257041132
20.239656 -9.7080326 5.8153944 1257567476
19.645033 -9.4687252 5.3270264 1257567476
21.295218 -10.671803 9.6857491 1255331036
20.5322 -6.3458719 36.046959 1255287888
21.192768 -9.1621122 5.2432904 1252697768
20.730396 -9.1997824 6.2510514 1256249562
23.371162 -9.5319662 8.1556435 1257679528
23.46393 -9.3374128 8.1684942 1233158272
21.195078 -7.4473681 9.8160954 1233158272
22.252113 -4.8361664 34.871201 1234210960
21.631853 -8.2499332 35.206364 1238935736
7.2438331 -8.3459759 -11.545064 1255856858
23.456987 -9.5309877 9.6063204 1261350835
23.443443 -9.5238924 9.8725777 1257559752
22.819046 -10.233067 12.266374 1256646374
22.232235 1.4119129 33.117687 1256646374
22.730328 2.3000317 33.183064 1256645348
23.63641 -9.7575388 12.615211 1255328460
23.056122 1.7075984 32.660927 1253220518
25.797386 4.2683115 33.056011 1257541794
35.398018 -5.7625675 20.791025 1257541794
35.398018 -5.7625675 20.791025 1233684616
1.4274468 -14.273436 -13.368671 1250301480
26.264971 -7.2692904 11.14308 1254235200
25.585875 -8.6204767 13.637858 1254235200
25.382788 2.6667547 31.3036 1254806224
26.639387 -7.1586947 11.527026 1255856854
-37.749294 -5.0794177 49.286098 1258645604
14.060961 -3.4372964 -16.828413 1252945520
13.910704 -4.1377778 -16.492563 1227927728
-26.967585 -27.310165 46.89835 1227927728
-32.3993 -5.6479053 47.239944 1257293504
-31.445391 -5.8852892 46.782982 1255331036
-17.47308 -2.2464383 27.126909 1257556680
5.5768304 -9.1000614 -4.4769244 1257813174
-6.7146015 1.6327627 12.536173 1254671558
-27.51973 -5.4990697 45.768749 1254540480
-6.7819853 1.8100215 12.76581 1255196874
7.3121815 -16.58337 1.7953728 1261614259
-18.097603 -2.9246433 33.193569 1252808800
17.967096 -6.8213844 -21.722506 1254278852
-14.479214 -0.67810827 24.262602 1248903368
12.251821 -5.2780304 -19.961531 1233662032
-8.7456627 -7.5315237 15.449919 1254012592
-11.109543 -9.8809681 21.262287 1256778986
-6.2729287 -19.371861 23.817631 1251251872
-5.6973205 -18.730137 23.75016 1251251872
1.3639314 -14.466281 16.150003 1252167286
2.5267508 0.964338 -8.0558538 1252033116
-2.7480774 -20.484711 24.120356 1251898426
-2.0934477 -21.048347 24.097225 1249178876
1.9514326 -15.210394 18.330362 1230033136
-2.2449524 -19.732552 22.864618 1230033136
3.8204556 -13.041026 14.773887 1252690004
2.0251334 -14.386663 17.822981 1248652524
2.1114986 -14.643584 18.327013 1232138480
1.0120047 -16.645487 20.344809 1232138480
5.8796649 -14.440745 7.1645646 1249705212
6.9265327 -11.354276 13.191747 1249705212
8.2303467 -12.089746 15.552868 1248389352
7.8478208 -11.071353 15.3002 1253215838
7.8574839 -11.188611 15.650195 1249178868
5.3755198 -12.008183 3.3289824 1254664816
-6.6157966 -18.29829 -51.406769 1249705212
1.5498469 -6.9064775 7.3315878 1250067074
1.6213152 -6.9512897 7.5548706 1255455884
1.5544031 3.4712498 11.595454 1263982803
2.1795628 -8.2175589 9.0780449 1254272636
1.4165738 -6.872139 8.8078089 1264509147
-1.5372818 -2.6452692 -13.968926 1251908754
0.80701005 -5.9914169 4.5459065 1264641505
0.43908566 -5.1964235 3.9102497 1258090704
0.42942253 -5.7193694 3.0958273 1258092244
0.0010817009 -5.4995165 1.5618657 1263785166
1.242781 -9.5203609 0.6902194 1252961966
-0.36355385 -5.4180369 0.069401167 1262337728
1.3271869 -0.17325018 -20.740921 1249701104
11.585963 -15.529902 10.444738 1249701104
1.5819596 -5.9963861 3.1518006 1266088951
-3.3873262 0.84850508 -13.598801 1233680512
-1.4729826 -2.706634 -10.087642 1266614271
-1.8306926 -2.4436989 -10.832871 1266614271
12.712705 -14.903131 10.782052 1261746613
-2.9160154 -10.531233 -40.517612 1260628130
-2.8961017 -10.51689 -40.412449 1264444126
10.818762 -4.3831835 31.729507 1237891264
-2.5893788 -10.357269 -39.130623 1262930887
-25.430511 -21.288517 -77.902794 1262206394
12.730352 -6.7809167 32.633179 1242597516
-5.3541002 -0.55045402 -14.614025 1263786194
-5.8917022 0.16417938 -15.142217 1265035491
-11.31146 -1.4236006 -33.334724 1264180952
-6.7822895 0.86169332 -16.179857 1262403771
10.89375 -1.4744991 26.856781 1242600576
13.520335 -4.6545367 32.131096 1264575712
13.370188 -6.4388943 30.811523 1263852246
14.425536 -14.574126 12.320452 1263522254
-6.3189483 2.9034243 -14.253679 1263522254
-5.578969 -0.070805252 -23.184908 1266352126
-7.2674584 -0.62917328 -16.072512 1233160344
15.497038 -7.0760117 29.955235 1260958128
14.557117 -7.9998322 -8.1264658 1260498864
-63.518345 -34.41114 -127.39359 1234747616
16.488409 -15.434513 15.089781 1266679807
14.908409 -0.81475413 28.815142 1266483199
-38.338894 -22.099312 -88.240028 1262207941
15.777398 -4.4250937 29.698219 1260498864
15.017738 -13.435974 11.112586 1266679805
15.651002 -10.958678 19.349243 1225834768
8.4445343 -12.425365 5.342443 1208058432
11.844934 -13.284623 10.725307 1218519360
4.2992892 -13.682599 -0.34023133 1260826801
12.298846 -13.124331 10.890178 1245755580
-8.8170891 -2.5051794 -34.562431 1247337708
37.721802 -6.3036442 23.955296 1260628909
14.578262 -10.565928 -8.2123251 1228980448
17.404924 -10.501001 -4.2710729 1247599836
21.481524 -11.420948 1.1565766 1247599836
21.481524 -11.420948 1.1565766 1216381120
23.844608 -10.322471 4.4520936 1216381056
21.234358 -12.205685 5.2779546 1251119766
29.754744 -8.8074636 12.219829 1251119766
26.946859 -9.091876 8.5146284 1224769664
26.946859 -9.091876 8.5146284 1218494784
-27.218149 3.1543777 -48.526066 1228972240
29.549374 -8.4039564 12.270551 1220641088
30.209351 -8.1423206 13.330939 1226895648
29.860113 -8.1463747 12.740636 1264117992
-28.537886 3.2078259 -49.797096 1264183785
39.435688 -2.7899427 24.548922 1230041312
-29.672209 3.2605143 -50.872688 1260693675
-30.755533 3.3061955 -51.909592 1263789541
-31.223162 2.1532617 -53.306541 1262933718
6.5733719 -5.5569921 -15.434129 1263592936
-33.978645 2.227133 -55.972469 1263592936
-39.274269 3.6754711 -60.009796 1234215064
23.330198 -11.167262 7.5922627 1260432295
11.786084 1.0937833 17.682896 1260167327
12.156977 -6.2299724 -7.8294072 1250856610
14.181705 -3.1818976 19.941759 1244708056
19.373453 -6.4649019 1.5855008 1262339007
-56.545216 1.3115165 -80.432465 1259510941
-14.928353 -4.3013549 -37.331741 1243394240
-34.968067 -1.714186 -59.118153 1242078380
-32.343086 -1.5791297 -56.272335 1247601880
11.470804 -0.13833506 11.555822 1258979455
7.3549519 -5.7332854 -11.903366 1256780518
-15.235126 -4.6280789 -37.090084 1256780014
33.31963 -6.4843402 18.869995 1260432301
41.427593 -6.4665356 28.595341 1256382678
-75.267296 3.0213892 -96.139603 1255067342
12.771076 -0.12495001 12.718813 1253090468
12.771076 -0.12495001 12.718813 1235263648
43.626274 -4.9145584 31.28817 1255198932
35.22332 -6.044878 21.316452 1255594712
-22.743372 -2.8309183 22.385494 1255989470
-16.582214 -1.2941955 16.238571 1255989470
-21.905249 -7.6421628 23.951302 1253353640
-32.065186 8.6040411 32.695843 1232138480
-2.5420067 2.188102 2.331826 1253582916
-0.90965503 2.8428185 0.4102158 1254673610
-1.8818307 1.2147474 3.9657209 1255069396
-10.914965 -9.8016672 17.250532 1256639172
-5.0994411 7.6217866 -0.20881695 1232138480
-2.1615779 0.94606411 6.3598013 1232138480
-1.5574708 -0.16245298 5.1714954 1253883068
-1.1347728 1.077116 2.6649113 1254670526
-9.808095 -8.311245 5.2596536 1252414556
-2.015775 0.87220925 6.2839899 1251648168
12.952943 11.206993 -66.386284 1249166532
-1.6325823 0.86871105 6.0561523 1253490372
0.44663641 0.37822795 -2.3389556 1242340520
0.50225347 -0.29690346 -11.599886 1252569262
-0.17762469 -2.0227301 -9.1220827 1250856586
0.35545623 -0.27921593 5.6524143 1247336656
0.59657663 -1.3469785 3.8750367 1254278348
-3.4830675 -14.658668 -11.165979 1248653568
-1.9640067 -5.9323192 -29.083372 1244445896
-2.2828729 -6.8364654 -29.616989 1254541520
-2.8069241 -7.522687 -31.711515 1251114068
-1.8208036 -8.0844536 -35.281326 1246020812
-4.9706192 -9.2761784 8.3766947 1226875072
-2.7394848 -7.6728477 -31.754318 1226875072
-5.5512767 6.235312 3.4166667 1247337700
0.09169209 -3.0542555 -5.878459 1251899448
-1.3518159 -7.1472659 6.6128945 1247600872
-3.22505 -8.1355696 -32.139038 1248654576
-3.4142995 -8.3340673 -31.246418 1246810320
-3.7942975 -8.4126577 -33.563614 1246550260
-2.9067175 -7.9111156 -29.418324 1222705472
-4.5732908 -2.7053907 -31.348751 1222705472
-5.7861562 -8.1175079 -32.42617 1246811356
0.34361476 -4.5275106 3.9217188 1252036204
-6.5702686 -3.5665634 -29.135275 1247074528
-8.2158289 -0.47826368 -14.152124 1247074528
0.65457863 -4.7337794 5.015852 1246286028
-2.5935485 -4.3739824 -5.3626599 1252035170
-3.1248143 -4.1512074 -2.2147355 1246286028
-1.1870666 -4.8633018 -0.93062562 1250466472
-2.8127341 -4.9608989 -4.8574152 1247338716
3.1986303 -6.5627918 14.194106 1247338716
0.38785234 -6.9911594 6.6646566 1247337708
3.3933618 -5.8221812 13.263962 1247337708
-1.5649599 -5.5084839 -0.27485189 1246548184
3.7196672 -6.1956773 13.59932 1253221982
-1.6836874 -6.025723 -2.6193969 1246285020
4.485086 -7.5955634 14.135861 1252962984
4.4574733 -8.8489056 13.880293 1263721941
4.8815408 -8.0018854 13.578692 1264972008
-9.3360147 -5.4786277 -11.626419 1262011323
-1.6125137 -6.3351283 0.92722172 1264840424
-8.745532 -8.5967503 -4.7084365 1261880250
-1.3833715 -6.8588171 1.5763586 1266155517
-10.829235 -6.1897988 -10.74516 1262801100
-4.4754591 -6.7792201 -2.5920823 1266483199
-5.2658591 -6.7567191 -3.6456335 1263261142
-4.905107 -6.8822608 -3.1346571 1263261142
-5.5798011 -9.1106262 -8.7591257 1262998479
-6.2706995 -9.384656 -9.9060965 1264577252
-6.0112891 -6.9129043 -4.5488644 1262866897
-9.9751835 -10.583141 -15.666805 1224777872
-7.3067408 -10.041005 -2.1295719 1265564924
-1.3326731 -7.2487545 1.4327375 1265762303
-5.1093535 -7.1891556 -3.5400252 1265762303
-5.533977 -7.2177796 -3.8559809 1266221055
-5.8954077 -8.5966721 -7.4774332 1266483199
-5.0608029 -7.3364511 -3.2356396 1264708838
-5.7336454 -8.6119432 -6.8556795 1261223869
-8.6370468 10.461206 -5.8773737 1260303033
-10.164912 -8.3664169 -8.285429 1266352127
-10.241092 -8.3986073 -8.3959866 1266352127
-10.590409 -7.3749771 -9.7645798 1082130432
-7.3346114 -8.0292406 -5.5668364 1260959927
-9.994482 -8.1242466 -8.5125303 1262340290
-10.067698 -8.1606712 -8.6069765 1263196889
-5.8039579 -8.3227711 -3.6056828 1199636992
-10.647184 -10.684532 -12.139422 1263591647
-10.686196 -10.186298 -11.424008 1226879184
-6.8560247 -9.4900818 -6.7079892 1261023919
-11.237679 -10.27539 -11.860479 1228996848
-7.3503451 -9.6200628 -7.1113987 1228988624
-1.3662852 -3.9097455 0.27060756 1260629161
-0.81470364 -3.931124 -1.0452243 1233162376
-0.21026309 -3.7239711 -1.3374563 1234741408
-2.6640818 -4.2930975 4.208437 1234745552
-0.37787011 -3.545778 -3.1353302 1263066330
-2.3654327 -3.9544399 3.3773437 1263066330
-2.5568194 -4.5096512 4.9854474 1263329241
-1.2148104 -4.0452628 -0.017412646 1262079689
-0.91343808 -3.6409817 -1.6288203 1237903616
-0.62225056 -3.5248129 -2.6226437 1239484704
-2.4705188 -5.1925764 6.2101846 1261616830
-1.0520344 -3.7660143 -0.95718086 1260562089
-2.7394276 -5.6826868 7.7886901 1230037280
-1.0724188 -4.1231551 -0.27599311 1260956847
-1.0756128 -3.412904 -4.1484389 1224773840
-1.1488159 -4.2838449 0.42494351 1260232354
-1.1962014 -3.4275537 -1.4199734 1225814176
-1.4424305 -3.0631387 -1.6935757 1261681079
-1.4642161 -3.0593197 -1.6184669 1262206910
-2.5734179 -6.5445414 9.9856739 1262008252
-2.4192867 -6.2053547 9.5075216 1263260630
-2.274086 -6.9395752 10.582931 1263260630
-1.238331 -3.2424662 -5.1598458 1264842239
-1.2650304 -3.2367747 -5.2112231 1230012608
-1.020431 -3.5616484 -5.9379449 1235259560
-2.7476828 1.6971691 2.6687741 1264117229
-1.124337 -3.348145 -5.9824557 1264117229
-2.2392571 0.47023103 -0.84364396 1261942459
-0.11118931 -1.9256871 -1.1722009 1264320509
-0.7860108 -0.10187063 2.7077034 1235259544
-0.8339563 -0.46918696 1.7704041 1261482160
-0.73645443 0.91311991 3.7766333 1265759993
-0.70632213 0.8167994 3.6981235 1261023147
-1.3363714 -3.3300245 -5.845768 1250461328
-1.3572419 -3.1708658 -6.0201917 1250067078
-1.2447222 -3.4160235 -6.2332587 1252567208
-1.4311479 -3.3010643 -6.2483444 1250330246
-2.2537012 0.35838738 -0.22112139 1258850181
-3.1525967 1.0323046 2.5676067 1250985594
-1.3233593 -3.4106171 -6.2848225 1255198928
-2.8111207 -6.5124435 19.150139 1222697248
-0.97736126 -2.5441494 6.312747 1261617353
0.040363371 -2.0123749 0.77192557 1247073484
0.34912354 -2.0567582 2.0510175 1251115126
-0.027010005 -0.17010391 2.078016 1246810328
-0.17169528 -0.70468658 1.2340386 1246020812
0.65532595 -2.0873296 2.5386834 1254147266
-0.26148957 -0.62093753 1.2051299 1247599844
0.47491416 -1.8319508 1.638261 1247599844
0.77878201 -2.5827911 2.9807076 1246020812
-0.53156871 -0.023962548 2.7475486 1246283984
0.81846142 -2.6128249 3.0408859 1252030536
0.75302976 -2.4703085 3.066643 1260825261
-0.70724636 -0.5730685 1.3259745 1246547156
0.12923966 0.13189806 2.2924345 1248126180
-0.14504123 -0.11127966 1.6445456 1248126180
-2.6499038 -0.52553308 -0.28263295 1247073492
-2.8895414 -0.25781384 -11.902967 1230033104
-2.301723 -3.2125077 -9.00348 1247336664
0.35797349 -1.6434247 1.1816729 1247599844
-0.207297 0.41423708 3.9891255 1248127224
0.30974171 -1.6381503 0.80047542 1252691042
0.25736436 -1.6446506 0.60783988 1258522253
0.14109389 -1.6734711 0.041186556 1243394248
-2.3414102 -2.4376817 -9.5037508 1257963790
-0.54443687 -1.9523721 -1.3821169 1257305860
-0.81133932 -2.404206 -3.0125868 1236838592
-3.2836156 0.35081586 -14.358138 1236838592
-2.8881717 -1.3154584 -11.281109 1237364936
1.9554167 0.29051149 26.325123 1237364936
1.9554167 0.29051149 26.325123 1254932672
0.71960467 0.63634109 37.599072 1250589300
1.6978381 1.0805472 29.135923 1251244628
-0.24478887 -1.2510059 -0.56575733 1253486750
-1.6084158 -4.4621882 -12.073822 1249428640
-5.2430787 -10.11317 -45.12101 1244164196
-6.7241192 -12.039627 -53.977989 1253877374
2.2819912 2.4584339 24.295057 1255985336
0.40590063 -0.48712391 1.5555434 1253225640
-0.69404918 0.7534914 1.8800757 1253356724
0.9234736 0.22983213 8.3891821 1256517350
0.63458312 0.0024786091 3.2512386 1255464676
2.3849616 3.4219136 19.116617 1243653300
0.90963548 0.90881437 13.215199 1265497071
1.9885777 2.7417364 14.820286 1262930635
1.0977176 0.79946375 10.326301 1262930635
0.7502684 0.54195976 10.959022 1265562864
-3.625401 -0.71355587 -13.233565 1235792064
-4.6416597 -7.8020368 -32.322308 1265103083
2.927829 4.4722071 23.085625 1265893114
1.1180074 1.3497007 12.858557 1266417663
-0.52330154 -1.059458 3.7217624 1265958907
0.18688519 -0.59185481 -0.46924514 1263392980
1.889511 4.1624365 15.921205 1263392980
-1.7121943 -1.0083851 1.4289184 1262996426
0.74400753 0.41747668 3.7285032 1264181211
-0.10281784 0.41583923 5.5752878 1263654617
0.74598944 0.48314974 3.7817469 1232154976
0.63382775 0.6171701 3.3169801 1265629690
0.86797518 0.75305665 4.7345805 1262208452
0.075981885 -0.61447793 1.9369254 1266286591
0.26157191 -0.011286603 2.8876326 1266286591
-4.2944679 -3.4066646 -16.549999 1266286591
-0.29309523 -0.30842486 4.6810884 1266154751
0.69695801 0.45070517 3.6382489 1266352127
0.30734679 -0.24569149 2.3004038 1265300723
0.63249111 0.30513409 2.9260764 1263655387
0.037326779 0.091871403 5.3884907 1263655387
-0.32814395 -0.71336901 2.10466 1236316336
-2.5956707 -2.6438844 -8.1860771 1265827582
-2.470365 -3.3485706 -9.4932165 1263458521
-2.9770935 -1.1721944 -4.7416759 1263458521
-3.1714194 -0.64747453 -2.8882864 1238425816
0.051017631 0.31433058 5.447854 1263983832
0.18567361 -0.61597526 1.7512165 1240531192
0.18782216 -0.21809579 1.9293962 1240527088
-0.40739617 -0.51180381 2.6893923 1262075324
0.093668297 0.19011579 4.2873588 1241810052
-0.014600999 0.030907638 -0.10510693 1262535875
0.089145258 -0.36837897 -0.52188373 1242074268
-0.6872828 -0.71133661 1.8697976 1266352127
-0.40114585 -0.59457022 1.7653812 1263064013
-2.9200051 -1.9137013 -6.5122185 1262272964
1.4433069 -1.5287666 2.3183277 1264644082
-0.67631483 -0.51935607 1.8836797 1262075839
-0.96228826 -0.69956332 1.5024449 1265499391
-0.52392632 -0.40943778 1.7607752 1263721181
-3.1976659 -0.94731075 -4.3018007 1263721181
-0.69021291 -0.48868588 1.4228454 1243130036
-3.2268336 -0.85501313 -4.0169988 1259310227
-3.2683442 -0.9907887 -4.3641853 1261943740
-0.053703841 0.020402046 -0.079423271 1261943999
-5.5849319 -0.35837102 -11.08646 1243913384
-0.87886786 -0.45810205 0.15717709 1243391136
0.43683469 -0.36003083 1.3830152 1262536906
-0.38375652 -0.25316367 0.40596834 1246281924
-2.0242672 -0.805722 -1.5259476 1246281924
-2.4972036 -1.0087506 -2.2707486 1264182242
-3.5650759 -0.91914576 -3.6610699 1261285810
-1.5432284 -0.47711259 -1.0698206 1260232352
-1.7536691 -0.59631455 -1.3950542 1208009152
-3.4820538 -0.53716469 -3.5491762 1260431010
2.061455 0.25061908 -2.6573324 1263260111
2.2584088 0.23485367 -2.8478184 1261285294
6.4345922 -0.55902582 -7.976233 1262929608
2.5549786 0.18009776 -3.2235632 1261220269
2.8200376 0.33108583 -3.8805525 1251515038
2.2030966 -0.38778183 -3.1868317 1243921660
2.5053828 0.20691468 -3.243078 1262078424
2.4988208 0.042439438 -3.1921954 1242338500
2.1520574 0.28141519 -2.9129851 1251778718
2.5128801 -0.019246135 -3.263938 1261550535
2.3666289 -0.28788677 -3.5893486 1254014136
2.2956393 0.24639951 -3.1061504 1218486496
2.4767618 0.076069005 -3.3449807 1247328432
2.2134502 0.33108956 -3.1313488 1251120284
2.2648962 0.2847231 -3.2188959 1252161602
2.2067518 0.32852539 -3.1939723 1247073492
2.1195118 0.35706082 -3.1318884 1244704944
2.2018712 0.34189019 -3.2466085 1246547148
2.1538775 0.35641149 -3.2000721 1246547148
2.7932715 0.11288249 -4.7212024 1246810320
2.1325281 0.38540095 -3.15958 1246810320
2.7829754 0.086257517 -4.7981071 1246284980
2.1232631 0.44048622 -3.1538718 1251638350
2.2782421 0.35485539 -3.4097595 1246020796
3.597949 0.15206684 -5.859005 1247599828
3.5378022 0.36811516 -5.7813606 1247599828
3.3751493 0.33441138 -5.6748056 1253216848
2.1315238 0.45428497 -3.3074241 1224769664
2.2773151 0.12642677 -3.8499551 1248126180
2.1295555 0.15600245 -3.6509984 1245494460
2.146894 0.32316747 -3.5000846 1248126180
2.1638203 0.29205278 -3.5747778 1248126180
2.1638203 0.29205278 -3.5747778 1252825216
2.0583079 0.47268182 -3.3353889 1253741656
2.2257288 0.45326033 -3.5912716 1233143936
1.9435825 0.50215387 -3.32585 1233143936
2.0275435 0.54843646 -3.4555607 1232138512
0.55735922 -0.31822559 -1.9414949 1254141616
2.1715677 0.50526762 -5.3681402 1251897924
0.71201414 -0.43590909 -3.3864594 1246285020
0.26939374 -0.018261544 -2.3106525 1244951604
1.4356637 0.18843834 -3.7602642 1235771528
1.6904267 -0.88928026 -5.4833989 1253090976
1.8262732 -1.2996141 -6.7269888 1252304040
-1.2624037 5.3398986 19.517059 1243913376
0.28861707 -0.46748251 -2.9506896 1251646110
0.30395037 -0.37390625 -0.52225643 1251383952
0.54930586 -0.92851138 -2.5195799 1254142086
0.34091187 1.1708767 1.3077899 1256121052
2.2954113 -3.0574296 -11.786223 1254805722
0.17855875 1.677653 3.0502794 1246285020
0.16769558 -0.58360958 -2.8897645 1250725522
-0.57082909 1.9332958 6.5076942 1233688720
0.80408794 -1.0778593 -2.7165043 1261153708
0.94967943 -0.91416818 -2.2005272 1260824743
0.3836295 -0.9221732 -2.4186769 1261087915
1.1526979 0.72205901 -1.8556484 1261482673
0.59486055 -0.70510602 -1.4055228 1261416369
0.52190268 -0.7163313 -1.3086134 1237895368
0.33802205 0.45227596 -1.3254038 1265299694
0.51810133 -0.84907103 -1.7881318 1265299694
0.51304066 -0.85893935 -1.7745404 1231085792
-0.11576686 0.7687403 2.6429985 1265102315
-0.10228478 0.76893133 2.5802891 1264245979
0.12469243 0.10856503 1.1206104 1236320440
-0.10895841 0.60635221 1.6832583 1262799558
1.2057114 -0.4531441 -4.4217563 1237373128
0.27673244 0.34047922 -0.42850992 1265498102
-0.09043505 0.57660365 1.3073736 1234210960
0.43876424 -0.78711015 0.24062663 1266023417
0.39842793 -0.7467432 0.91843539 1261220015
0.12338526 -0.48141947 1.6897194 1261613748
0.16705953 -0.39965585 1.4179982 1261482421
0.0010295085 0.38465232 0.36285013 1239474400
0.13734336 -0.52044839 1.3554349 1261285040
0.10610891 -0.19464979 0.96304041 1261482419
0.2850889 -0.75227839 1.446485 1260693157
0.11034468 -0.093451016 0.72915906 1241808000
-0.020826209 0.31206858 0.15799442 1265827069
0.078229636 -0.20649929 0.60363001 1263655898
0.096204877 -0.13162659 0.34997687 1263655898
0.34139082 -0.67204356 -0.46456575 1263129554
0.30391628 -0.65572852 0.08237917 1263129554
0.068412684 -0.19561189 0.28568578 1227948352
-0.56972265 -0.53101158 -3.0591722 1266089208
0.059215844 -0.1834482 0.14693682 1261088691
0.51606351 -0.97159374 -0.80084276 1259576221
0.17210153 -0.40679514 -0.15182154 1260957097
0.22371456 -0.77960747 0.75090396 1260891561
0.27408937 -0.67383796 0.04448624 1260562339
0.2424248 -0.62319779 0.09641578 1260562339
0.24168012 -0.62436813 0.11646999 1261087913
0.30937344 -0.74681479 -0.66658372 1246810360
0.24974246 -0.68447119 -0.10681166 1246810368
0.031914555 -0.28018525 0.28631514 1216381120
0.072584592 -0.3419182 -0.21997078 1246288100
0.2652972 -0.74173433 -0.28119114 1246287088
0.2238737 -0.66723001 -0.50480634 1256515810
0.2238737 -0.66723001 -0.50480634 1244444892
0.058188755 -0.29686156 -0.14903291 1251766844
0.058188755 -0.29686156 -0.14903291 1245492408
0.37423208 -0.95961183 -0.98501599 1252951632
-0.0019101035 -0.32968298 0.31447017 1252437182
0.0065274816 -0.23632017 -0.061681774 1236318432
0.2193215 -0.70098883 -0.55120021 1233156264
0.017923666 -0.29375243 -0.25741872 1246020804
0.21702828 -0.74490398 -0.66175228 1247336664
-0.010726344 -0.23674764 -0.14517744 1246020804
-0.65947586 -0.37737042 -2.5031466 1247599836
-0.062501028 -0.24428202 0.16957557 1252034148
0.21981235 -1.8611299 1.960977 1247336664
0.11772745 -1.1868744 1.319295 1247336664
0.014672742 -0.43443605 0.47513199 1252296280
0.045575671 -0.28295937 0.020375308 1212219904
0.029970158 -0.42909047 -0.3961924 1247336664
0.0088287424 -0.37830281 -0.37288126 1247336664
-0.030364092 -0.27164951 -0.24672934 1246283976
0.28013632 -0.91948563 -0.78056234 1253216340
0.065661475 -0.58131921 -0.59655833 1246547148
0.35311472 -1.2293183 -1.4609793 1246547148
0.021640902 -0.47793099 -0.30223018 1250334906
0.02651168 -0.4878546 -0.38707149 1226875040
0.055426303 -1.1871712 1.1126646 1226875040
0.14651713 -0.77079129 -0.74045032 1249940144
-0.078628682 -0.25586769 -0.35113099 1230008432
-0.066282332 -0.30508512 -0.31130612 1230008432
-0.0088562155 -0.52876705 -0.48751962 1250976822
-0.070219398 -0.72080463 0.52268261 1253090976
-0.11674047 -0.21775717 -0.44137231 1250197634
-0.14645888 -0.19621906 -0.025529286 1261682899
0.069619961 -1.1598417 1.06284 1249705212
0.17276196 -0.79461265 -0.7360698 1232093312
-0.013147512 -0.50767881 -0.48897475 1243125912
-0.08274845 -0.36230272 -0.4622902 1252564124
0.064312473 -0.74534065 -0.77773827 1250854536
-0.2819666 -0.052721448 -0.84282738 1251379850
0.085726783 -0.80210286 -0.53038555 1251379850
-0.80793071 -0.15187678 -2.3735619 1253869630
1.1534567 1.6277927 2.9031076 1251646106
0.054981906 0.30951411 0.049587697 1248914688
0.19867443 0.98717773 -2.2921479 1250988176
0.17834644 -1.1227353 -1.2444229 1230024928
-0.16934481 -0.44211116 -0.18026648 1254407350
-0.1576903 -0.43581411 -0.47858217 1244696712
-0.32119775 -0.16299453 -0.85200518 1243910276
0.17296301 -1.1166121 -1.1963184 1254274742
-1.0087475 -0.62288749 -2.7588291 1254672066
-0.0563199 -1.0748323 -0.4590764 1254672066
-0.34194461 0.12209688 -0.77915651 1253217366
0.27450046 -0.67149353 -0.076411411 1226875040
-0.90267283 -0.4235796 -2.381098 1250725000
0.11601872 -0.78415483 -0.017764134 1253748398
0.10755576 -0.77918422 -0.5586791 1242856572
0.31920615 -1.1015522 -0.71550423 1242856572
0.18885818 -1.1161399 -0.55678463 1245757624
-0.25052655 -0.68290389 -1.0559516 1248906448
-0.32913461 -0.77003247 -1.337803 1253883068
-0.3290014 -0.010294314 -0.79700434 1243377704
-1.2594647 0.00099859189 -3.0870974 1243375656
-1.3078278 0.38565585 -3.0469439 1245474860
-1.3001232 0.055006821 -3.1070681 1251240500
1.5874692 0.72316146 0.26926088 1252687938
-1.3997165 0.65377605 -2.989125 1252687938
0.9842819 0.73829758 0.21383946 1245494452
0.28585464 1.0013926 -0.81508571 1252032070
-1.5338256 0.38621676 -3.0530996 1252032070
-1.5249702 0.59866238 -2.8853016 1256910048
-1.5562418 0.36076662 -3.006084 1243905108
-1.7169926 0.39967024 -2.9215991 1250329724
0.19579284 -1.201563 -0.043684617 1249441004
-1.1947465 0.30489406 -1.9123241 1249441004
-1.2101653 0.29608396 -1.9022114 1252427846
-1.2177039 0.035007518 -1.7700976 1252427846
-1.2356545 0.03058954 -1.7565339 1252689498
1.9629182 0.83975512 1.6277932 1236316352
-1.6098773 -0.24179505 -2.1996579 1246801000
-1.4335442 -0.087631665 -1.884608 1242601620
-1.597963 -0.22913788 -2.0944526 1250325586
-1.6318076 -0.24687068 -2.0761817 1247327352
-1.5302743 -0.1275132 -1.8778781 1257436394
-1.7653657 -0.068154648 -2.1697447 1258517591
-2.1134307 -0.2957499 -2.6057866 1254673602
-2.1394761 -0.30521643 -2.5934668 1247590516
2.7823787 -0.018042721 -3.3934817 1241053496
4.8342018 1.1017265 -7.8983216 1252830884
4.6182041 1.0077416 -7.7043891 1258386003
4.5894532 1.1871343 -7.8945746 1253488814
8.198576 6.4912858 -11.320955 1254402146
2.5848005 1.1175579 -3.0559113 1256516842
6.1657553 1.3727474 -9.5109262 1258648399
4.4914932 0.5489037 -8.0865602 1258785158
6.2331066 1.6660782 -10.047322 1250330250
4.2644172 0.42970666 -7.8548093 1258648399
2.2883575 -0.24698332 -3.5049498 1250593414
6.172575 1.5894595 -9.9621334 1255067342
2.7318137 -0.36550707 -6.0578871 1250198664
2.9159451 0.43302336 -4.5807137 1257563866
2.8791389 0.40146455 -4.6054697 1236842696
2.8824496 0.45384809 -4.648808 1257172718
5.9405327 1.7063651 -9.9421949 1224769696
4.3022208 1.3106928 -8.0709496 1250067596
4.1266212 1.0705645 -7.9035339 1250463384
2.8728869 0.38618323 -4.6928139 1262666945
0.72164124 -0.16641198 -1.5308437 1249935492
5.1283927 0.93346494 -8.9163008 1249935492
2.9890676 0.60297686 -4.961669 1256252642
1.4535105 0.4217571 -2.4562857 1251119766
5.2654448 1.6689389 -9.4441681 1224769696
3.7984407 1.4318694 -7.9830604 1251119258
1.7030369 0.23273267 -3.2078021 1246810328
2.6947424 0.56267673 -5.0476751 1250330250
5.697331 1.4179909 -11.377076 1261417394
1.2601571 0.51824129 -2.6487854 1261417394
4.2456484 1.6006624 -8.8722363 1264443872
2.6600316 0.76336634 -5.8662648 1132462080
2.813139 0.96679389 -6.2110181 1260957356
3.662936 1.5757052 -8.4069529 1216389344
3.514734 1.6131085 -8.4980583 1260956077
2.8196969 1.2826368 -7.0018511 1260956077
2.8331401 1.2440571 -7.1450648 1262864840
2.8693523 1.1676559 -7.2390246 1264312286
3.2600107 1.3716841 -8.1633339 1263785174
2.832293 1.2133963 -7.2921276 1264508897
3.1697721 1.593876 -8.3841286 1263851735
2.819041 1.3398831 -7.3158393 1264378079
3.2774599 1.7234318 -8.336484 1261880002
2.8049033 1.4538451 -7.5482693 1245504736
2.6711249 0.92933834 -7.7862792 1264116451
3.4257858 2.1126342 -10.365222 1264445417
3.0794642 1.8512084 -8.6899853 1263721181
2.7369537 1.3401788 -7.9730048 1263260630
5.494554 5.6468205 -18.659842 1263720411
3.9778078 3.6826074 -12.866454 1241547928
1.6166493 1.6380944 -5.8929343 1262601419
1.3550049 1.5996813 -6.1887593 1262865871
1.4521251 1.279706 -6.5766282 1264379881
-0.0046958616 0.0731593 0.79490167 1264511467
0.58421862 0.68740338 -4.1072836 1262471373
0.034233425 -0.55657268 -4.5643554 1237377272
-0.048087906 -0.49946472 -4.4807348 1264182245
0.12935236 -1.0668949 -5.2759771 1262207942
-0.026160296 -0.68974668 -4.5745225 1262734799
0.20581226 0.93704909 -4.9411907 1265892350
-0.29174003 -0.95352709 -4.1248398 1265958399
-0.34701079 -1.0234412 -3.9648364 1240529176
0.38300502 0.011100058 -6.9600635 1238427920
-0.097126618 0.55391222 -4.5306401 1265958142
-0.24863218 0.49236065 -4.3458767 1218494816
-0.30973506 0.60661924 -4.256671 1266154494
-0.35918248 0.74866444 -3.9685438 1266483199
-0.3385227 0.52594262 -4.2043743 1235792088
0.15605824 0.58825421 -0.44246578 1264904174
-0.49958578 -0.84543151 -3.9502759 1233686704
-0.69793588 -0.39724964 -3.418118 1265432312
-0.60328335 0.41242996 -3.5888655 1265432312
-0.61592114 -0.1173001 -3.6774685 1265958655
-0.43661249 1.322951 -4.1153426 1266023935
-0.60932571 -0.015355635 -3.6536644 1266023935
-0.43880841 0.85562587 -3.4643338 1264049629
-0.08135388 0.72298521 0.71332544 1264510180
-0.6052981 0.27273881 -3.5424707 1266679807
-0.43900335 1.1647998 -3.4180183 1260891052
-0.63787359 0.62297475 -3.3957522 1260759213
-0.64182615 0.63826889 -3.4012623 1260957097
-0.68061388 0.70499301 -2.8989477 1258719105
-0.77915436 -0.19842692 -2.9648664 1252162116
-0.52829123 1.0955353 -3.5666678 1253609562
-0.87492496 0.14224032 -2.1111321 1245494460
-0.70501828 0.57816851 -3.1892085 1248915696
-0.85770756 0.23954523 -2.1455629 1231085792
-0.72328979 0.51135445 -3.0324876 1231085792
-0.79982466 0.014242196 -2.7706234 1247336664
-0.79575872 -0.1748298 -2.8725533 1248915696
-0.79227257 -0.14039698 -2.9139748 1248915696
-0.67446488 0.76182061 -2.8373494 1247863008
-0.81815952 -0.12380205 -2.7790003 1247599836
-0.80933583 -0.23967825 -2.8443673 1247336664
-0.76006782 0.31899953 -3.0052345 1248387300
-0.5976181 1.0807241 -3.3226061 1248387300
-0.80101693 0.36990154 -2.488605 1231085760
-0.021741372 1.235988 -0.01310166 1231085760
-0.80499309 -0.17034021 -2.8032644 1233156256
2.7453904 -0.52021867 9.701292 1254005856
0.13690896 0.037943874 0.58295804 1247073492
-0.84754181 0.23078306 -2.1636357 1247336656
-0.77050871 -0.020852542 -3.0258181 1247336656
-0.66066974 0.96136439 -3.1286931 1226875040
-0.68700194 0.84872288 -2.5974636 1226875040
-1.677882 0.15525375 -6.31675 1246547148
-0.75530291 0.40286157 -2.2716389 1252427866
-0.77249312 0.35848209 -2.8298721 1254136414
-0.87543964 -0.072726279 -2.0964119 1245494460
-0.76911026 0.10980113 -2.8825412 1250981476
-0.8447845 -0.40599668 -2.4533939 1253219440
-0.87977374 -0.10172336 -2.7359467 1227911296
-0.69863087 0.83981699 -2.8157218 1227911296
-0.74667895 0.63245517 -2.7340486 1251632692
-0.79633212 0.15055194 -2.6851525 1245476944
-0.66487074 0.9820385 -2.9074724 1254131770
-0.78261381 0.097299866 -2.7737823 1259247277
-0.85182261 -0.29939991 -2.3675628 1230004432
-0.78011376 -0.36683935 -2.9054992 1252301978
-0.86681575 -0.051316753 -1.9208218 1246003300
-0.79870278 -0.098110721 -2.6557708 1244178600
-0.80456436 0.0086050583 -2.5984948 1252172450
-0.78680497 0.45636153 -2.1986322 1254145718
-0.78680497 0.45636153 -2.1986322 1252824670
-0.67965621 1.0095323 -2.8353531 1244437656
-0.79251462 0.080283672 -2.6260016 1254014136
0.2033198 0.12899637 0.74812317 1254672066
-0.80200732 0.1946822 -2.4287128 1254672066
-0.78527564 0.0089892484 -2.677357 1239996640
-0.7693432 0.26836687 -2.498384 1239459960
-0.80588651 0.16684964 -2.1696932 1251382934
-0.6921699 0.82462734 -2.0933836 1254278330
-0.78644091 0.57428604 -2.4443185 1254278330
0.074676231 0.99318981 -0.25243244 1243646088
-0.70104903 0.84220439 -2.1535504 1235263648
-0.73549753 -0.14604869 -2.6665776 1249435872
-0.82613909 -0.15006056 -2.2045605 1251251348
-0.85154241 -0.27164251 -1.9962062 1251241522
-0.90161133 -0.041475393 -1.9284589 1244967080
-0.81380743 0.51673633 -2.3583317 1251898426
-0.76362538 0.85331374 -0.91250175 1251898426
-0.87077391 0.02041482 -1.788402 1252294210
-0.83755356 0.29726261 -2.2706223 1252294210
-0.70186692 1.0443918 -2.4345853 1254006364
-0.7055521 1.2743798 -2.7425804 1242349828
-0.85399657 -0.054158207 -1.7685447 1252698276
-0.66682255 1.1456041 -1.4840039 1250980926
-0.85552746 0.37493205 -1.6203029 1250980926
-1.1482606 -0.1068939 -3.5591021 1240516784
-0.81909692 0.73084939 -2.1275096 1246546112
-0.84031677 0.11664902 -1.8883277 1251109432
-0.80623758 0.46198282 -1.8192995 1249439988
-0.79773223 -0.6084249 -2.4192827 1250329220
-0.74459291 0.59985745 -1.305427 1250329220
-0.79415989 -0.68479079 -2.2006321 1250329220
-0.67667973 0.93046838 -1.7366679 1246019768
-0.75782424 0.51374298 -1.5789002 1252561490
-0.78903979 0.10456784 -1.7269614 1252561490
-0.76667213 0.89510339 -1.6860211 1256646370
-0.13921918 1.5816582 -1.6314732 1250194016
-0.81826323 1.985842 -2.6378031 1256648936
-0.43830988 1.1598438 -1.3594601 1253754044
-0.50142658 1.6660056 -1.9835451 1247335628
-0.47726038 0.92272711 -1.0639932 1251637832
-0.47704095 1.4496081 -1.8474685 1244439720
-0.078913271 -1.0993714 -2.4634147 1258387034
-0.5075745 0.68313414 -1.1087375 1248652532
-0.50616008 0.92400581 -1.2949938 1255856858
-0.30179214 1.6575437 -1.7624345 1248639092
-0.18149669 0.79604793 -0.81522107 1250197634
-0.49675167 0.37760094 -0.97653335 1257170656
-0.45171249 0.043056309 -0.77841496 1249176816
-1.1071175 1.1381172 -2.398102 1249176816
-0.46928486 0.0036508699 -0.83135378 1244970168
-0.39136067 1.1625563 -1.0952423 1253348448
-0.46491343 -0.2245869 -0.75045389 1258218156
-0.28370833 0.57413226 -0.4581646 1247327392
-1.0841945 1.1639525 -1.5776333 1254006362
-1.0907962 1.1607924 -1.5584363 1251646106
-0.064049184 0.12756552 -0.082444809 1252568234
-5.7355156 -2.7308116 5.072053 1260166813
-4.2128239 -2.5264492 5.2272377 1258320472
-7.0244336 -6.4532843 9.6020508 1258320472
-4.6154714 -3.5024753 6.1800928 1248391404
-7.0651617 -6.3163595 9.7127562 1234225432
-6.672431 -5.9605427 8.9921923 1256910572
-5.8322167 -2.7189221 5.7154727 1255858912
-5.5493321 -3.0133903 5.8736057 1259048330
-5.2562366 -2.938463 5.4376249 1247604960
-2.8379004 -0.52580637 5.2872467 1254411492
-2.7617776 -0.46304294 5.467905 1254411492
-5.3406043 -2.9797206 6.1182508 1258654342
-6.0517955 -5.988893 10.498526 1247075544
-2.5831451 -0.44639236 5.3115301 1251647132
-5.242754 -2.921896 6.0728459 1257306866
-5.1168084 -2.9020073 5.8834291 1246288100
-5.0195842 -2.9297781 5.8513899 1256383202
-4.6935859 -1.6045696 3.2656581 1259180434
-4.5479355 -1.5659158 2.9597096 1257175280
-2.3724983 -0.60169834 5.6242309 1256385256
-2.2960567 -0.36877751 5.525033 1251384996
-1.3073037 -0.043012399 2.148145 1227927760
-2.3336768 -0.57125777 5.578033 1254015676
-2.2964642 -0.59131706 5.5861802 1249706256
-2.304323 -0.62957001 5.595377 1236318432
-3.0383036 -2.9215724 5.836905 1250593936
0.67042673 -2.0200706 0.2201805 1250988180
-2.2496569 -0.60847414 5.5932064 1246024912
2.0792732 -1.6263294 -3.6675851 1251778216
-3.853941 -0.48720223 5.3920393 1252436648
-2.2445638 -0.56800187 5.3807588 1261877431
-2.190218 -0.61832386 5.5931096 1132462080
-2.1486573 -0.64259303 5.6494837 1132462080
-2.1694276 -0.64849597 5.6048126 1260825257
-1.9597564 0.042999715 5.2268085 1208009152
-2.0769994 -0.78508192 5.9418669 1132625920
-2.137763 -0.47773162 5.1755743 1261483700
-2.8534813 -0.68536413 -0.18822511 1132462080
5.4458361 3.0163884 -19.453733 1212236032
5.557642 3.3887365 -20.082508 1212219904
-1.6105217 -3.2029991 2.5995238 1261088433
0.034098193 -2.6452296 0.93193668 1140965376
4.1441288 3.8172216 -19.610691 1261351862
-2.2344813 -1.9354576 4.4372334 1212269184
-1.8503759 -0.31916007 4.1693125 1132593152
-2.7111633 -0.085093208 2.0822525 1261024430
4.1891756 11.249071 -20.238222 1262274499
0.64996016 -1.972257 -1.2844148 1262406085
-2.6555812 0.052540645 -2.8506334 1263589594
-2.522804 0.085294776 1.2046613 1252042416
-1.953341 -0.51971167 3.9578028 1252042416
1.1215516 -1.8933148 -2.4559715 1264182757
-2.2477853 0.38822728 -0.51712281 1265629691
