# .PCD v0.7 - Point Cloud Data file format
VERSION 0.7
FIELDS x y z rgb
SIZE 4 4 4 4
TYPE F F F U
COUNT 1 1 1 1
WIDTH 380
HEIGHT 1
VIEWPOINT 0 0 0 1 0 0 0
POINTS 380
DATA ascii
-1.3540263 0.51116681 3.8398633 1244697712
-1.4265019 -0.15411854 3.8039322 1244173424
-1.3155878 0.83999705 3.8814497 1244172404
-1.2326963 -0.0042698411 3.8177814 1244958824
-1.3157893 0.84001482 3.8835914 1244435576
0.051657278 0.025391392 3.8688653 1247853700
-1.250048 -0.16792974 3.8114038 1260033396
-1.1582727 0.65855998 3.8613114 1245222000
0.289996 0.51410002 3.9339602 1247327360
-0.67951548 0.10437431 3.808645 1246540936
0.11416506 0.70454657 3.935755 1246801028
-0.98197788 0.64294499 3.8561628 1259638899
-1.1955463 0.32884702 3.8196766 1244961896
-1.0736364 -0.19277371 3.7977931 1246014592
-0.33429036 -0.10352779 3.8262651 1260494208
0.19080791 -0.50778276 3.8491004 1249436840
-1.1752328 0.49129862 3.8314366 1259770740
0.096095055 0.535142 3.9172323 1259507825
-0.49995777 0.08728575 3.8267171 1259704692
-0.082778938 0.55360013 3.9034536 1246011512
-1.2505523 -0.16705319 3.8186047 1260033396
-0.84107077 0.29277626 3.8223035 1247063172
-1.175239 0.4918977 3.8317618 1259770740
0.064068854 0.19410758 3.8744097 1260165756
-0.95560193 -1.9188895 4.079895 1266614269
-1.3060989 0.67309004 3.859107 1260164982
-1.3526168 0.34754777 3.8314261 1259836787
0.24107116 0.34779021 3.9002607 1260626306
-1.3102578 0.67533654 3.8535509 1260296568
0.21657221 0.0070308736 3.8705053 1260560001
-1.3866204 0.013773419 3.8068964 1260099959
-1.3884937 0.012884201 3.8239758 1260099959
0.2103627 0.0074139899 3.8585296 1260428670
-0.78854698 0.77800781 3.8693407 1259902837
-1.0896945 -0.34404477 3.7978978 1260560510
-0.73171067 -0.38541198 3.7885649 1260494463
-2.0294304 -1.7979991 4.1310492 1250857594
-1.1415406 0.80695146 3.8663352 1259442029
-0.43031922 0.74171895 3.887924 1259705205
-0.73196667 -0.38472959 3.784812 1260494463
-1.7662852 -2.0822978 4.1833773 1262207390
-1.750497 -2.0835807 4.1589546 1261944218
1.3190926 0.9143452 3.8018806 1241049312
-2.8009348 -1.9293345 4.415185 1252693086
1.2848563 0.91468543 3.7472899 1238943936
-0.36772811 -0.4265815 3.7995567 1259771767
-1.3269103 0.30074781 3.8169758 1260428924
-0.36755905 -0.42535731 3.8025613 1259771767
-1.0327249 -0.32549229 3.7912698 1260955014
-1.2921913 -0.12519762 3.8232062 1260691842
-1.3493854 0.13321093 3.815047 1244962940
-1.161333 -2.1196368 4.0664101 1264312513
-3.2995861 -2.3629055 4.3671913 1246012512
-1.1381259 -0.31230599 3.8061128 1260625795
-0.9841693 0.17829578 3.8146989 1246274684
-1.1152706 -0.14373219 3.8102374 1246277764
0.94897902 0.84619087 3.5977788 1241539672
-1.380658 -0.19940417 3.7952545 1245225068
-1.6689806 0.90242356 3.8732119 1242332264
-1.1351243 -1.9473206 3.9965136 1256908976
-1.1584941 0.19886822 3.8050246 1260493947
-1.4251654 -0.30924338 3.7973297 1260231802
-1.4854368 0.73846149 3.8780901 1259573361
0.29128191 0.67971987 3.9394469 1259968119
-1.5635277 0.031403188 3.8256774 1260099189
-1.099654 -0.49257907 3.7790422 1260692096
0.28687257 0.67849642 3.9478323 1259968119
-0.38737279 0.71157408 3.8957725 1260034170
-1.3667865 -0.039050046 3.8100088 1260165755
-1.0740658 0.27721897 3.8298724 1260099451
-1.2119621 0.6285485 3.8674815 1244699744
-1.1005893 0.77819073 3.8659289 1260033651
0.55334872 -0.95286351 3.8732224 1250460260
-0.74411714 -0.53832507 3.7927377 1260823428
-0.57345325 0.64174056 3.8726408 1259770998
-1.3087953 -0.29300871 3.8167415 1246540928
-0.73463541 0.067337587 3.8220816 1246541948
-1.1402633 0.98656255 3.8255813 1260165498
-0.48990646 -0.30677035 3.8075025 1260165247
0.92455173 -0.63345873 3.9521959 1248913596
-1.5754302 0.038733654 3.8224883 1260034166
-1.3632542 1.2133477 3.912642 1244174468
-1.1439542 1.0001673 3.9073615 1259902326
-0.71876597 0.23429766 3.8258376 1259901818
0.55265266 -0.95034742 3.8659203 1250460260
-0.052546963 0.85657108 3.8812151 1259375985
-0.49440199 -0.38901424 3.7952228 1248909476
0.71004671 0.25157505 3.7731133 1260560001
-0.010426856 -0.62088728 3.8318124 1260561283
-1.4903638 0.72676235 3.8357508 1259573615
-0.37840292 -0.589656 3.8102517 1260823685
-1.2760731 1.0555793 3.9403937 1259244396
0.1555475 0.57165784 3.9357338 1259573364
-0.41614088 0.89180768 3.8848619 1259573619
0.19103043 0.05693626 3.8706882 1260296829
-1.2105604 -0.22697298 3.8033457 1259639412
0.053988546 -0.44791582 3.8450673 1260625794
-1.5206194 0.36858177 3.865036 1259770997
-1.8707366 -2.1891394 4.0594058 1256516278
-1.58174 0.84064978 3.8978777 1261348489
-0.77555633 0.9317233 3.8761494 1259179375
-1.5855803 -0.68010813 3.8206823 1242070108
-1.3036582 -0.21129219 3.811347 1259375985
0.91250509 -0.62917691 3.9279587 1249174712
-0.40670657 0.9044401 3.8764513 1259573364
1.3621159 1.3161495 3.8267629 1245223104
-1.3049537 -0.18709359 3.8941438 1259836278
-2.5867255 -1.428731 4.1848044 1258983284
1.3100587 1.2974035 3.7431993 1246800064
1.5172383 1.1690733 3.8825641 1239466168
-1.4488392 0.82449108 3.8557401 1260626303
-0.50772303 -2.0718009 4.1229811 1266679549
-0.31166297 -0.40608922 3.8162405 1259770489
-2.3903801 -2.2042882 4.2803082 1255594656
-0.047311261 0.86549413 3.9022896 1259375985
-1.7799538 -2.2949138 4.0628357 1264247244
-0.50562364 -2.0785031 4.1410069 1266613759
-0.76821744 0.94179487 3.8696425 1259048303
1.3118885 1.0874014 3.573036 1236308104
-1.5424405 -0.66987783 3.7988529 1242860652
-0.70157474 -2.1650834 4.1294241 1261744784
-2.5398216 -2.2325482 4.1304302 1261943436
-0.71327972 -2.1736658 4.1168084 1261678991
-1.6486106 -0.66506648 3.8070199 1241811064
1.2110187 1.0494126 3.5970564 1238939824
-2.5890059 -2.3861115 4.3078337 1262929566
1.1115525 1.0274857 3.4863026 1244955772
-2.2401078 0.10457011 3.8707137 1236318424
0.14570743 0.53911692 3.9139969 1259244913
-1.1836401 -2.1862345 4.0910759 1264312252
-1.7332202 0.53394926 3.9022145 1251529942
-1.8144741 1.2144763 3.9328418 1251656896
1.1602333 1.0541677 3.5639548 1246277812
-1.5219637 0.37519503 3.8379376 1259968373
-2.2451468 0.10054863 3.8851674 1235792080
-2.6813238 -1.7048584 4.3389478 1262798752
-1.9147584 1.3150958 3.9548936 1251265742
0.76301342 -0.21985486 3.9869182 1260099963
-1.7577678 -0.60218191 3.8305359 1255074530
-1.9161755 1.315261 3.9603672 1251265742
-1.7779537 -0.64237142 3.9299002 1250471592
1.1517022 0.60628277 3.7856264 1246804156
-3.2732298 -1.1859272 4.0783057 1246797888
0.36210978 -0.35688773 3.8759174 1260889993
-3.3437905 -1.0863529 4.0508056 1259176279
0.35855535 -0.0033992515 3.8942785 1261020807
0.40534565 0.34147859 3.9576054 1260691842
-2.8246377 -1.7494172 4.321106 1253873236
1.1787575 0.6072613 3.8321304 1247592652
-0.080408975 0.086466655 4.0354695 1259968377
-1.4084939 -0.59356725 3.8433168 1259836790
0.43923536 0.33247212 3.9344101 1260560256
-0.10198491 -2.2662604 4.0562329 1266284501
0.50357699 -0.8396883 3.8632839 1260889478
0.14121674 0.38521561 3.9023919 1247855752
-2.9612486 -1.8039544 4.2880945 1250585148
0.41013932 -0.012048041 3.9008474 1261086600
0.10039416 0.34763891 3.9043608 1246802044
-1.663995 -0.050569892 3.8607152 1260757889
1.0508221 0.63059223 3.735235 1248909532
-2.7883499 -1.7356347 4.3208427 1252955220
0.48640686 -0.82803965 3.9193957 1260561028
0.45816159 0.3237403 3.9200778 1260494463
-1.7323889 0.14974561 3.8977101 1252181180
-1.2473234 -2.0297372 4.0970154 1253354612
-2.8826323 -1.4677182 4.2005906 1249929790
-1.4738954 0.52040637 3.8428199 1260297338
0.4226788 -0.022028167 3.8943892 1261086345
0.95207596 1.4840438 3.8922608 1230358000
-0.8943454 -1.5984823 4.0067081 1263587761
-1.3296206 1.1072463 3.9536142 1259705205
1.0417501 1.0890915 3.4714689 1253877894
1.1573092 1.1444633 3.5367432 1251904118
0.44210246 0.82764894 3.8933446 1259770485
1.1491214 1.152488 3.6152198 1251904626
-1.5708808 0.48419553 3.851248 1260559479
-0.96042138 0.21144421 3.8745773 1251116130
-1.1080421 0.60650182 3.9296086 1246275700
0.39616752 -0.17728962 3.8746455 1260757892
1.2053307 1.1714683 3.6129506 1250852452
-1.5338086 -0.75537968 3.829612 1251925210
-3.5692115 -1.8851267 4.2637954 1255959552
0.76651549 -0.50183594 3.8927207 1261021064
-1.4607308 -0.63857311 3.816349 1259508855
1.058364 1.0980595 3.4675171 1250718294
1.1006998 1.123746 3.5365112 1253089414
0.38419381 -2.1157172 4.0845227 1266679550
0.35458443 -0.20276274 3.8823044 1260626052
1.477053 1.1881135 3.6704466 1252825734
1.0115454 1.0700278 3.4216769 1252429940
0.80112982 -0.34333023 3.9210904 1260627336
1.4169078 0.44784713 3.6740313 1245234404
-1.7117709 -0.33266467 3.8473666 1260559740
-3.1917365 -1.8046315 4.3535709 1255179280
-2.8094242 -1.6236892 4.2730794 1260360045
-2.3372951 -0.73494273 3.9307332 1250328694
-1.8993735 -1.9621828 4.1617694 1249441968
-3.1823833 -1.7929182 4.3354445 1255179280
-2.9105334 -1.2602988 4.0478854 1247064160
-0.47226739 -1.8601153 4.0576386 1266679546
1.5914826 1.0425687 3.6956053 1251245700
1.6195107 1.0147458 3.7111328 1251771536
0.41003335 0.8056314 3.8085902 1259770485
-1.1019264 0.72385913 3.879313 1246537856
0.81053299 -1.1585293 3.9148698 1255736060
0.40072367 -0.17918858 3.8870568 1260757892
-0.48102319 -1.739296 3.9950032 1262008721
-3.1973052 -1.6019288 4.2886996 1252684332
-1.8855178 -1.929986 4.1006126 1249178796
-2.7471941 -2.3616776 4.3373637 1261021824
0.70232654 -0.92597669 3.9227724 1250197088
-1.2504957 1.309677 3.9502492 1250739918
1.0550337 -1.558912 3.9960697 1258224316
-2.3089514 -0.7114898 3.8510015 1250199156
-1.4414626 0.95361537 3.8797288 1259705204
0.034927197 -0.54174536 3.8478196 1261021064
1.4625274 0.58514208 3.7055736 1246278800
-3.2028856 -1.6049048 4.2992043 1252684332
-1.8464049 -1.9860504 4.1675854 1250331230
-0.61051124 0.61422175 3.8336933 1259705205
-0.99534792 -2.2948027 4.0391345 1261351046
0.70309377 -1.8773699 4.1257582 1263455405
-2.7232792 -2.046782 4.4789181 1260759169
-0.55116004 -1.8326614 4.1437273 1264903619
-1.9274429 -1.923026 4.0966659 1249442988
0.10196273 -1.8306999 4.0631013 1264179898
-2.1660161 -1.8637941 4.1022954 1249441968
0.7947101 -0.1376411 3.9694355 1260560001
-2.2819991 -0.53379244 3.8520372 1248390364
-1.463891 1.269379 3.7910004 1251002570
-1.6121501 0.25321671 3.8613031 1260428923
-2.9746957 -1.8065 4.2504811 1252294722
1.3345013 0.60711432 3.6556334 1250591340
-2.9995317 -0.1361625 4.338748 1250463864
-1.6341765 0.27384606 3.8603501 1260428924
1.1434121 1.5725515 3.8672969 1235362384
-3.2165132 -2.2501686 4.4384556 1258221214
-1.2078925 1.276494 3.8941875 1251004116
-1.5003564 1.3597713 4.0711794 1251264206
-3.4020593 -1.2622907 4.130784 1254254594
-0.23136975 0.8706556 3.9448586 1259968376
-3.3292046 -1.7777271 4.1409664 1262910464
0.74094152 -0.42173272 3.9589217 1259903612
0.44114196 0.54202867 3.9562199 1260099962
-2.1523733 -1.8409078 4.0563169 1249180844
-3.3793931 -1.2511787 4.0798984 1255043072
-1.6710259 -0.73184961 3.7978008 1251662046
0.76686054 -0.60897779 3.943532 1260034939
-2.9162195 -1.2861974 4.0137076 1248904308
0.80869895 -0.17944549 3.9647267 1260757893
-1.4443768 -2.3604188 4.0892243 1261814187
-1.4076189 -1.7579795 3.854193 1254543526
-3.5590158 -0.053591434 4.3096685 1250860158
1.2737596 1.2094026 3.7213809 1248116892
-2.0025206 -2.2716112 4.1251607 1259512204
1.2383161 0.62416184 3.7118661 1255197864
-1.1735096 0.88383102 3.8987186 1259836790
1.1800054 1.1901706 3.6197996 1247848620
0.42966697 -0.96600026 3.8650899 1255472888
-0.26392895 -1.9001721 4.0736766 1266679550
-0.69393206 -0.48851967 3.7717774 1261218440
-1.326663 0.97788393 3.9363222 1259836787
-2.8667548 -1.5940363 4.2146945 1252426830
-0.44602224 -2.257745 4.1344624 1263586727
-0.03796852 -1.6444421 3.9352067 1266218447
-0.27333379 -0.38986647 3.8071713 1259770490
-0.32635865 -1.6662737 4.0092998 1265363398
-0.5739007 -1.6729643 4.0734372 1264639679
-2.8492496 -1.5426688 4.162569 1251376208
-0.55319399 1.1228418 3.8777521 1252181704
-1.5309851 0.11111984 3.8184621 1260692095
-0.35753313 -1.8318695 4.1007619 1265232586
-0.50209618 -0.71516681 3.775434 1260231808
0.98330843 -0.88128698 3.9792769 1253763814
-0.46671399 -2.2438018 4.1315084 1263849899
-3.1395686 -2.1904986 4.3894768 1258781260
-1.4754666 -2.3619537 4.0953832 1261813932
0.1431904 0.81818372 3.9063613 1259704950
-0.49304682 -0.69811839 3.7847128 1260757892
1.677189 -1.3885404 3.9720039 1258388832
-0.59088057 0.9241156 3.8609126 1259508085
-1.9062252 0.85148638 3.8946908 1246830884
-0.94668698 -0.77197289 3.8273478 1251389620
-0.8892777 -0.22884831 3.8528469 1260625535
-1.5179861 1.3150629 3.919502 1251002570
0.87924832 -0.2762261 3.947253 1253893856
-1.2030588 -1.3302811 3.8695405 1256120504
-0.73398417 -0.48796675 3.7820537 1261086854
-1.2100863 -1.3860309 3.9921253 1254278300
2.3981576 -1.3582573 3.6722214 1259308126
1.0089718 -0.91103095 3.9767146 1253630684
-0.90078908 1.282788 3.9381862 1251002062
-1.9135855 0.8750447 3.9223974 1240580544
1.258216 -0.4282254 3.9993458 1252976360
-3.2854624 -1.8955307 4.2031579 1261923840
0.55097383 0.31313133 3.9266388 1260691842
-1.7106131 1.0629307 4.0041518 1251792086
0.98013926 -0.848701 3.9534407 1253500642
-1.6507561 0.6830014 3.8355939 1251135184
-0.25428429 -1.9167131 4.0569124 1266614014
-1.2002363 -1.3195765 3.8238418 1254147228
1.0411986 -0.58536357 3.9764287 1252845280
-1.5830642 0.2657932 3.8881538 1260559995
-0.81351113 1.1810642 3.9201307 1249943202
-2.0361886 0.51207888 3.8597815 1251134676
0.61759239 -0.7174629 3.8790543 1260428928
-1.6403694 0.037408661 3.8785629 1260034166
-1.3034935 0.26901075 3.7462711 1260231548
-1.9688303 -0.57426035 3.930692 1251002570
-1.5708772 0.68470275 3.8718209 1260164982
-0.55153775 1.1496587 3.8989472 1250732720
-1.566383 0.59218436 3.8843367 1259442029
-1.2174462 -0.68103164 3.716455 1252574400
2.426542 -1.3911349 3.7027175 1259900002
-0.91269368 1.2585318 3.9238393 1251133648
0.41833675 -2.5000811 4.157331 1264639676
-3.291487 -1.5132987 4.182488 1263565824
-1.5801532 -0.51682967 3.8983366 1259968376
-0.9829179 -0.63340384 3.7553086 1260560513
-0.98291254 -0.62056041 3.6991146 1260428923
2.4136715 -1.3873407 3.6891556 1259900002
0.27826485 -0.82428849 3.937978 1260823686
-2.1147046 -0.25722522 3.8212678 1251004112
1.9781158 -1.3576378 3.5058138 1261677176
-0.05511035 -1.5854013 3.8596599 1265824462
-2.0828624 0.14584467 3.8496962 1251266262
-1.6507387 0.10980392 3.8506737 1260823682
-2.2891006 -2.3587551 4.1364818 1263127210
0.92661077 0.21502501 3.98961 1253891278
-2.1151423 -0.10608292 3.8287625 1251135184
-2.2412558 0.46721515 3.8269131 1235267840
0.8630631 -0.41561612 3.9381566 1255206622
-1.9547564 -0.50760627 3.8091533 1250870984
-2.0572548 1.1512731 3.9093444 1237381464
-2.0853565 -2.26353 4.1303153 1259906192
-2.1277497 -0.12234035 3.8667367 1251003598
-1.8071173 -0.72563887 3.7997534 1251793624
-1.9686458 -1.2793146 4.0139999 1251912834
-2.1043797 -1.9936603 4.2752728 1248652452
0.99506652 -0.47066355 3.9711537 1252846312
-1.9778836 -0.49516019 3.847465 1250740426
-0.81031787 1.1741409 3.9015615 1249943202
-0.58038199 1.2177016 3.7997501 1250607304
-1.6966417 0.56676513 3.8548696 1251660500
-0.76527005 1.0567338 3.8721657 1259837819
0.79874104 -1.9639134 4.1323638 1266679288
-0.91267401 -0.55869985 3.8077164 1260889475
-0.63719004 1.0101488 3.8418174 1259640440
-1.8897872 -1.5400503 3.9622118 1245753476
0.035440471 -1.8744434 4.0406709 1266679294
-2.0019681 0.25089183 3.8561354 1251135184
-0.68377578 -1.4634835 4.0140181 1257566388
-3.2735445 -2.0332394 4.3471847 1260476420
-2.1232924 0.95702523 3.9108903 1238950192
-0.075738288 1.092191 3.8873312 1250865334
-1.5611442 0.11289314 3.8262761 1260692096
1.4324077 0.41592592 3.6854017 1243392224
-1.8584849 -0.74839628 3.8375356 1251530452
-0.99343544 -0.66131771 3.7863379 1260034684
-0.99344051 -0.66132575 3.7892456 1260034684
0.39060792 0.92128873 3.9829152 1259836278
-0.77663732 1.0397056 3.8991365 1259639926
-2.0106547 -0.80204695 3.8138239 1251266770
-0.26428714 0.9991346 3.9649382 1259770998
-2.1513069 -1.5373143 4.3581076 1259509115
0.74138504 -2.4628837 4.0958457 1262863004
-1.490484 -1.2780827 3.7862647 1255990972
-2.9477091 -1.3900361 4.0377679 1252953174
0.6067757 0.26493981 3.9021873 1260560256
-3.3063109 -1.9267906 4.2673831 1262185472
-2.2283299 0.39256394 3.8425474 1235796200
-0.56038606 1.1536725 3.8999386 1248673104
0.38138652 -1.0202125 3.8942032 1255343356
-2.116291 -0.33751211 3.7955883 1251002062
-0.91303164 -0.56134611 3.7931912 1260889475
1.4638503 0.75554293 3.6966691 1251251320
-1.8525331 -0.75649798 3.8286848 1251530452
-2.0856926 0.15571544 3.8613076 1251659992
-0.67849803 -1.4326445 3.8643246 1259113582
-2.8669677 -1.3756351 4.0628777 1250717770
