# .PCD v0.7 - Point Cloud Data file format
VERSION 0.7
FIELDS x y z rgb
SIZE 4 4 4 4
TYPE F F F F
COUNT 1 1 1 1
WIDTH 1138
HEIGHT 1
VIEWPOINT 0 0 0 1 0 0 0
POINTS 1138
DATA ascii
-0.11866167 -0.39148477 1.1895485 3420735
0.12283159 -0.017700849 2.5046942 6576228
-0.16139406 -0.22649403 0.70634961 2170656
-0.085528612 -0.41719919 1.678172 2764096
0.025651988 1.0089695 3.305656 16777215
-0.04385668 0.055783194 2.042212 6315866
-0.21019472 -0.15183181 1.6543082 6906224
-0.14061925 0.17277016 2.147393 9137447
-0.75685722 -0.16225156 1.3068193 2894892
0.1380918 1.5414869 4.2171669 7362610
-0.096781604 0.19118755 1.6876864 16776956
-0.13699868 -0.1400059 1.8988861 1381653
0.11792818 -0.1581188 1.8126334 8221003
-0.030225264 -0.024488481 2.2027869 6377812
-0.12296922 -0.50274885 1.7815654 8744504
-0.13357456 -0.64044112 1.8387198 7169909
-0.27299657 0.02789171 1.6593546 9145479
-0.33873397 -0.20024954 1.3555284 5197639
0.32200745 1.3009193 3.2285361 8681293
-0.68067205 -0.68240917 1.6213222 6575448
-0.25556597 -0.0033275962 1.5090353 7493410
0.065584987 0.1720154 2.3210201 4934986
0.14969811 0.8718667 2.9984038 4013373
0.084871814 0.41687685 2.3355739 6904933
0.1981568 0.0074677505 2.3149366 5592395
-0.59103185 -0.21608491 1.4503278 6771541
-0.39921936 0.91592044 2.7114401 1447446
0.5056802 1.7601641 4.276762 4281443
-0.064280696 -0.39189416 2.1285541 8021304
0.22386594 -0.24754927 1.8159361 4735564
-0.1620753 0.15634176 2.4039097 8875574
0.0071525597 0.43831465 2.5655146 8154949
-0.017553343 0.039912876 2.2169559 2894892
-0.040372066 -0.47898006 2.1366236 4144957
-0.18614276 -0.46484014 0.81560659 3820379
0.081748456 -0.047863666 1.7662108 8220742
0.16254631 2.1363733 4.8055153 6706007
0.099182457 1.8727561 4.2067719 1644827
-0.30997372 -0.35445714 1.2583088 2762793
-0.47307849 -0.6467784 1.3802156 5981735
-0.70885706 -0.099479355 1.5986164 8942408
-0.55207342 -0.75343084 1.6437249 5915954
-0.15698628 1.3514787 3.1504605 1907486
0.022868644 -0.06380932 2.5170176 16777215
-0.35238343 -0.52658647 1.683915 5658188
0.014564532 0.46478817 2.2040699 9080713
-0.026806004 -0.15859857 1.9680275 16711422
-0.0035950867 0.35184196 2.6171062 1841693
-0.17381138 1.3683147 3.3317151 6444604
0.086168662 -0.20388211 1.9740628 7757358
-0.030522371 -0.51098007 1.8365726 7566959
-0.16315028 -0.22642079 2.2636852 5266287
0.29254773 1.3612539 3.4053693 1775123
0.28871316 0.58088696 2.7823477 2499621
-0.030518476 0.63475561 2.8255961 16711423
-0.3298811 0.73613113 2.7756538 8352086
-0.19111305 -0.27652934 1.8364499 2499621
-0.14889184 -0.13043824 0.74082166 5197639
0.35663745 0.72722721 2.9836998 5651768
0.16069068 -0.48411009 1.8427244 1710618
0.1411598 0.73199129 2.8248208 8544556
0.10654449 0.99571335 3.1678987 16711422
0.071361266 0.45020166 2.9134061 6514269
-0.39181709 -0.29999763 1.7343937 4542825
-0.33566454 1.1703409 3.0435064 8220488
0.12323829 -0.47923392 1.4053192 8351813
0.31366682 0.27645129 2.2588487 5591627
0.079062931 0.16788165 2.1595542 6712703
0.01473121 -0.24966961 2.1943753 8877643
0.061897621 0.0265646 2.2646334 8023363
0.11477613 -0.200803 1.4823123 9466931
0.0046486114 -0.35594475 2.4660203 10455687
0.031022502 -0.046742983 2.1720474 7102797
-0.22773027 1.3409032 3.2579648 7758134
0.2483156 1.0901481 3.3905263 7761756
0.15840246 0.28321275 2.2481737 9532211
-0.14076118 -0.2017964 1.7957522 5716783
0.30222052 0.39313492 2.2829485 7823672
-0.18804039 1.3416069 3.2385473 5658450
0.026751785 0.5282312 2.56533 2499623
0.27193996 0.29849127 2.6210549 5460560
0.12900692 0.5160628 2.5646882 986895
0.0033459263 0.22589944 2.324445 8020290
-0.39443216 -0.35442135 1.7059357 5855826
-0.63269824 -0.28999308 1.0165133 8883343
0.06704098 0.3006101 2.8267322 5782836
-0.66171175 -0.69256181 1.1456732 5066313
-0.32283077 0.4818424 1.6768074 5854540
-0.11804603 0.30706802 2.3065114 4803138
0.27542806 0.58805132 2.9246533 1709339
0.10770395 0.57757902 2.7777863 1840664
-0.2385675 -0.23942484 1.9791266 1052177
-0.79347986 2.2037706 4.6600266 8027508
0.08402808 0.87900019 3.0627451 7435373
0.14093392 0.49210823 2.5936048 1643033
-0.24467349 1.3397963 3.2335579 8153666
-0.065057158 1.0527071 3.0611613 6908006
-0.67857093 -0.18863022 1.8356434 10061442
-0.33531168 1.315521 3.1423488 1776411
-0.15400125 -0.65679485 1.4238832 4999506
-0.34107918 1.0533587 2.8640924 1643544
-0.028667388 -0.59980178 1.0419472 7889720
-0.33817443 -0.28344265 1.8312755 1119510
0.39727527 1.7404271 3.6302049 7699858
-0.59930986 -0.72677612 1.2082959 1512728
-0.39035153 0.76053768 2.0774615 6251616
-0.30728886 1.4030411 3.1754208 1710107
-0.31334355 1.0050299 2.7988145 7889467
-0.021632344 0.0079949284 2.1066322 16646142
-0.012839755 0.4556846 2.5882864 2432029
-0.22491565 1.3443193 3.154182 1710105
0.072283164 0.76663399 2.9959514 6841959
-0.044686489 1.5895389 3.5294273 2630178
-0.2304987 0.92097896 2.3890052 8748392
-0.062548354 1.4151843 3.1451657 5652533
0.17746909 -0.35788065 1.2473931 2168340
-0.5214988 0.11890824 0.89900345 1710618
-0.13902986 0.17492957 2.2430348 6582647
0.047645405 -0.28552341 0.94014424 1907997
0.97089535 -0.46911433 1.9598409 12502208
-0.32943606 -0.42041934 0.84902531 7238508
-0.57349133 1.7034523 3.8119831 5920330
-0.30275285 1.3642329 3.1451695 7106673
-0.10131834 1.4301264 3.4533226 8682599
-0.090103574 0.12786976 2.2768676 4803138
0.027428729 1.3225571 3.3327367 8485733
0.14719728 1.4963492 3.1065118 7492389
-0.46151733 -0.40498137 1.4470972 2829099
-0.35041475 0.80550891 2.266638 1643287
-0.26053619 1.3328487 3.3154309 9138997
-0.034292612 1.149526 2.8489497 2762018
-0.045390133 1.5567162 3.4516118 6974822
-0.72087127 -0.047509994 1.4192482 8880491
-0.52052587 -0.49636728 1.8085558 7432792
-0.13641772 0.94074416 2.5474544 5526861
0.32044566 -0.36956912 1.0352041 1842730
0.87466711 -0.25878334 1.3019478 6314311
-0.056785978 1.5127828 3.4091008 10328472
-0.21812223 1.3079611 3.2442498 8682858
-0.062014986 1.5774418 3.5772874 3618613
-0.6710791 1.8498268 4.053833 8748392
0.70012957 -0.040536862 1.6142062 8817551
0.018102046 1.7912059 3.846678 11122349
-0.63879812 -0.44370586 2.5077085 1249815
-0.29439369 1.4560002 3.345475 9014932
-0.029802198 -0.43996301 1.340661 6249555
0.18224792 -0.1577016 0.79085237 1709080
-0.039892621 0.0080666337 1.2571596 9137718
-0.98735589 0.032802332 2.5405343 11320246
-0.97904432 0.28964239 1.2419828 1774101
-0.1369179 -0.11936007 0.98546493 8681829
0.475247 1.2198986 4.1284447 9400367
-0.45083725 1.71752 3.5146632 6249808
0.30841944 0.031267229 2.2616849 5790546
-0.32257986 1.8572493 4.1366148 1775132
-0.20376335 0.45048794 2.6941185 16711422
0.30672568 -0.35552543 1.6854622 8419427
-0.30464348 0.45381305 2.6825714 6840655
-0.28476492 0.8402431 2.2827773 1579034
-0.33973333 1.1743351 2.9899559 5723981
-0.079492584 1.242624 3.0140142 9010281
0.17307317 0.51356673 3.0157654 5921360
-0.11689648 0.23058929 1.7938954 6381135
0.88532966 1.318223 4.1619468 8617065
0.3723366 -0.10621821 1.7256341 3154982
0.16842462 0.98645574 2.9885287 8879182
0.17818169 1.01001 2.6671038 5723981
-0.49506325 0.055882834 1.0484935 8217131
-1.2766099 -0.045799863 2.1372716 2039324
0.18626839 -0.22686952 1.3495569 6575406
-0.37484384 0.77514184 2.2321396 1774873
0.05738318 -0.1822124 1.9386456 3619126
-0.45958078 0.083192475 0.13607022 9870229
-0.12382513 -0.28722289 0.70262569 16711167
0.69397026 -0.23993702 1.5105981 16711422
-0.286962 0.89996797 2.5558336 8883583
0.52238214 1.001024 4.1623945 1775384
0.70473397 1.2518227 3.1402977 4664347
0.18906543 -0.39143804 2.284797 9071660
0.16685182 -0.45088553 1.4362527 9202986
-0.37541214 0.61627412 2.6747305 5852230
0.21621016 1.595317 3.2640834 7829106
-1.5283278 -0.27817017 -1.7447119 9672850
-0.036622178 1.3113747 3.0615871 2236964
-0.4521032 -0.75317997 2.4364498 9475473
-1.0011801 0.18345912 1.2756993 9540494
0.14768487 1.3330222 3.1486983 6508081
0.61665791 1.5893795 3.3198473 5128253
0.00098481891 -0.100981 0.12183232 9738645
-0.36755669 0.69091314 1.7890977 4349037
-0.89831734 2.1714892 4.6196947 6050127
0.56462055 0.34857211 1.9812068 8421756
-0.79931927 0.085899986 2.1013031 9342858
0.39479291 1.1024497 2.8491187 6047014
-0.31824788 -0.68719369 1.1592232 9269805
-0.2626105 -0.29277208 1.2001792 6577241
-0.56133187 -0.60988665 1.2573096 5921111
-0.35272884 0.092965476 1.3522688 9211529
-0.18004438 -0.78489757 0.036673643 2762793
-0.4847593 -0.57018083 1.1638284 8619135
-0.29968065 -0.68283331 1.1579896 4998726
-0.41951877 -0.65367973 1.2847284 7230513
-0.26242298 -0.14906648 1.250715 7696750
0.54544181 0.15678196 3.2327983 6709598
-0.33070683 -0.68476528 1.2199979 4473665
-0.43203166 0.12004155 1.5201464 8876605
-0.32245642 -0.41456389 1.2419122 6249304
-0.27151462 -0.18586186 1.1460217 9080198
-0.51076174 -0.38950181 1.0858297 2632233
-0.10997628 0.25276113 1.0609102 4605508
-0.54017806 -0.078521065 1.6343055 4802378
-0.22503613 -0.45047468 1.2696811 7894129
-0.3703846 -0.5502339 1.1862644 8421755
-0.41606545 0.065745458 1.3034512 9007680
-0.15398905 -0.26547197 1.2267278 5657167
-0.16568837 -0.51528013 1.7021329 4406589
-0.26815039 -0.13960801 1.1318848 8026485
-0.43631023 -0.62249511 1.2616874 8022598
-0.32137829 -0.33045262 1.2114744 4935502
-0.11705101 0.13275108 1.349282 2437691
-0.014618411 0.30296698 1.3607824 7760741
-0.13733421 0.044893775 1.2324406 7823666
-0.22132756 0.12575337 1.2967119 5000268
-0.51187468 -0.37909865 1.1259542 9467703
-0.24718821 0.28981391 1.0602933 2104863
-0.19032778 -0.093085475 1.275745 1643796
-0.16336989 0.21806408 0.90588617 2170910
-0.11849884 0.038989238 1.30086 4473922
-0.096899711 0.080122963 1.2101669 6380633
-0.35967419 -0.38195422 1.4334959 1183763
-0.0077452608 0.12246266 1.1919011 7294501
-0.39919624 -0.0096663646 1.537742 9535311
0.01239925 -0.058507506 1.2837889 6177835
-0.077132195 -0.05265693 2.5842357 8816514
-0.36865479 -0.53398585 1.1693579 6050377
-0.16686562 -0.16658551 1.2745069 2038556
0.01933999 -0.29065627 2.0913608 2301474
-0.2178902 -0.27678818 1.2219758 2235683
0.071563013 0.33246461 1.3540797 5855318
-0.036969073 0.19285424 1.3776833 6647673
-0.17001785 -0.38470414 1.1333084 1183761
-0.15524371 -0.25069386 1.1933252 3492697
0.025452785 0.327503 1.2248871 2170658
-0.090578519 -0.11864452 1.2793653 8746832
-0.051232237 0.46671548 2.8092358 5789523
-0.17951247 0.23854619 1.3552016 9009229
-0.11436563 -0.31106079 1.1622764 8882564
0.003661308 0.039665207 1.3083555 8941885
-0.35539222 0.45804191 1.2836612 2697000
-0.1456767 0.047468994 0.91424572 4276545
-0.25569347 -0.35748094 1.1726099 8027773
-0.07083907 -0.32269123 1.6850977 5259839
-0.064782046 -0.11325739 1.1517295 2697513
-0.15737684 0.041160773 0.9241662 2763308
-0.10989577 -0.11372735 1.2475147 8875574
-0.14422913 -0.47523406 1.5256639 2433830
-0.10678335 0.26344925 1.3204187 5788242
-0.19498941 -0.031967644 1.2268684 4867393
-0.22377141 0.11517256 1.2713456 2829101
0.0077953772 0.023743143 1.3036692 7829878
0.26517388 0.34972715 3.5165451 4934473
-0.1401035 -0.11536676 1.2665136 4671301
-0.0015515223 0.1100378 1.1762838 9600334
-0.15607947 -0.29627842 1.1667659 7697520
-0.081816822 0.0015231865 1.1195019 2236703
-0.52593273 -0.29294199 1.0028808 5130825
-0.17933463 -0.32322857 1.1490167 9601357
-0.12583533 0.442579 1.3692437 7625522
-0.11478834 -0.073188215 1.1861465 8882307
-0.096954495 -0.28402638 1.1997044 9073730
0.036808085 -0.22110327 1.4610415 2430742
0.03300827 -0.14378288 1.2565874 8685185
-0.087504752 -0.18863909 1.2105975 9272650
0.0058059692 -0.24624883 1.219771 2104863
-0.10671369 -0.20572066 1.1719356 4211011
-0.059377041 -0.23811686 1.2078398 2499621
-0.26239181 -0.49927449 1.2515117 8750978
-0.045921981 -0.23841661 1.1734035 3025449
0.046442084 -0.032074254 1.2447832 2104863
-0.29719284 0.51581913 1.3928293 9271371
-0.26578894 -0.13483997 1.1232176 2499621
-0.58935583 -0.46445954 1.022521 8942145
-0.19120219 -0.10079032 1.2666847 8219200
-0.10947785 -0.11115887 1.241598 7565934
-0.013596856 -0.17405257 1.0619472 7041910
-0.12849788 0.7111128 1.8059835 9205309
-0.77141279 0.64091825 2.0367749 16580349
0.089417547 0.3813374 1.1884478 6447187
-0.34093022 -0.58628225 1.1244382 9206356
-0.054420792 0.28032491 1.162078 2696482
-0.21669458 -0.34731162 1.1929992 7297080
-0.2390953 -0.33974323 1.6405627 7631727
-0.21173958 -0.054605696 1.2409378 6053207
-0.31570655 -0.33552882 1.2143474 4539717
-0.22495966 -0.1955958 1.1775732 9600585
-0.078780949 -0.28797334 2.2548628 2170656
-0.10975353 -0.085690096 1.2198305 3618356
-0.095050506 -0.016307335 1.3013217 7169873
-0.055633288 0.011532716 1.28053 5789006
-0.29460207 -0.54576564 1.1708407 7435900
-0.13017243 -0.26998481 1.1946449 2171167
-0.24018511 0.066710941 1.2752982 16449535
-0.65300465 -0.61254132 1.131281 7956291
-0.36507639 -0.6595155 1.257774 7237990
-0.020212786 0.0085052447 1.1949649 6324373
0.009095869 -0.026801163 1.2914487 5460039
0.61319673 1.2214659 4.83885 5986637
-0.12965828 -0.55641961 1.080381 2105376
-0.020593122 -0.022085708 1.3104905 9336902
-0.20284608 0.26378703 1.2872761 9600336
-0.3296262 0.39946729 1.0750241 2039072
-0.083914481 -0.48657754 1.0985746 2631461
0.13181366 0.30126026 1.2437303 2039581
-0.13055736 -0.095591933 1.0557258 5855051
-0.24484996 -0.51225346 1.1805851 5592648
-0.015747424 0.039418578 1.2007402 1117970
-0.056722142 -0.095652722 1.2931694 1381142
-0.15011135 -0.21290424 1.2252588 8416588
-0.16152832 0.39096367 1.2777164 8026744
-0.084006146 -0.21513893 1.1641606 921102
-0.21673308 -0.16488966 1.2077783 7438986
-0.65634704 -0.0761704 1.1894779 6118992
-0.054220743 0.18741105 1.1844096 5525832
-0.098199666 0.10512153 1.1560878 2039583
-0.093964055 0.36166549 1.4292978 6176804
-0.24064508 -0.42178014 1.2094024 2039583
-0.086777173 -0.094462618 1.2130079 5986383
-0.65029216 0.51935905 2.056947 1643544
-0.17583312 -0.33159751 1.1956784 6249549
-0.29497784 -0.42523426 1.5336984 2104863
-0.10921486 -0.034122378 1.0229118 6249808
0.055277564 -0.11739114 2.4167936 2039581
-0.35947296 -0.63032204 1.2174097 1183763
-0.039330721 0.20620321 0.98218799 1643798
-0.27433357 -0.47115308 1.5448674 2039583
-0.20809762 0.54649299 2.2963016 7304312
-0.28152063 0.66869062 3.0624423 1118994
-0.0045024357 0.30503941 1.4172382 2104863
-0.051364012 0.19584534 1.183089 2039070
-0.34528455 0.55552346 1.4141333 1907486
-0.038814895 0.11781722 0.9777813 6314572
-0.026185408 0.27755597 1.0848538 11713716
-0.13397922 0.34924325 1.4392877 6052176
-0.4498384 0.46222517 1.4001024 1643798
-0.031546913 -0.30980906 1.2344695 5658188
-0.15282884 -0.04638873 1.2294855 6246711
-0.18464139 -0.045618083 1.0585383 11779768
-0.24903229 0.35462672 1.4395113 11845048
-0.0087326681 0.29339901 1.2905962 9143150
-0.20864064 -0.049042512 1.248654 11715517
-0.10306536 0.17559423 1.1836699 7301459
-0.057692237 -0.42738482 0.86736065 2500136
-0.047571339 0.073584802 1.213156 5394500
-0.21225967 -0.34793726 1.2004213 8745553
-0.067906097 0.2707637 1.0053626 2039583
-0.080768295 -0.24220611 1.2627721 8281637
-0.019272018 0.60191721 1.2518203 1250067
-0.18712024 -0.51069397 0.73146123 8346660
-0.098374262 0.028853644 1.144823 2039070
-0.077390544 0.094329357 1.3919418 2236962
-0.22513337 -0.050069977 0.94000793 5723979
-0.15399471 -0.34006104 2.0491841 9533757
-0.24740359 -0.52989596 1.1720421 8814187
-0.18536583 0.23474561 1.1691592 3157812
-0.2698991 0.20481054 0.89959311 11648695
-0.33878008 -0.55862063 1.1245604 2631722
-0.32844004 -0.5551737 1.1691511 6777693
-0.11521227 0.048726793 0.92409945 7237228
-0.19659209 0.135417 1.0974101 8881520
-0.084172644 0.1378572 1.0370834 7366998
-0.22101863 0.18868774 1.1459079 5724494
-0.21850884 -0.36043203 0.77797657 7758658
0.15394418 0.21175833 1.3876286 1512730
0.4988502 0.71851021 1.8583487 8881777
-0.091305062 -0.48656687 0.93806094 1052175
0.24500652 -0.0716912 0.93721139 2105374
-0.21171685 -0.24442537 1.0451477 8548164
-0.13979894 -0.30752984 1.175498 12831177
-0.3093195 -0.45512599 1.2623001 1644314
-0.23991075 0.46946707 1.0642715 7829878
-0.37448803 0.58825499 1.185928 8947836
-0.46988717 -0.50564027 1.1021572 6579801
-0.086962827 0.12549992 1.0384225 11648695
0.17180899 0.010951636 1.0878881 2039070
0.62564158 0.1778191 1.3347114 1840923
-0.34317651 -0.4833664 1.2073057 9079410
-0.20843804 -0.19731864 1.0663263 9936786
0.58734578 0.19997934 1.2309958 7436139
-0.071709767 0.11959938 1.1654201 11648693
0.41471913 0.58152026 1.4756341 5460039
-0.10326093 -0.37485141 0.93137658 6249808
0.095887728 -0.074948624 1.5065466 12700361
-0.88732952 0.66076767 2.2665086 9013363
-0.21263148 0.42767555 0.85468566 8291963
-0.30601597 0.77014029 1.4594729 16645629
0.06305211 0.24234574 1.2765887 10266016
-1.159099 -0.020887312 1.825569 15990520
0.12756214 0.37065867 1.421887 2895153
0.35907704 0.29784974 2.3742707 2895153
-0.13321909 -0.42377323 0.9597739 3425872
-0.58923799 -0.49899071 1.2842759 2897222
-0.21887301 0.24068353 1.128264 16776447
-0.23330402 -0.51395208 1.148397 10594731
-0.0032064633 0.027097547 0.95150888 3750714
0.34471411 0.57579935 1.3551286 16580095
-0.1356148 -0.44735214 1.0281099 9080972
-0.082933448 -0.44666669 1.1112458 5065550
-0.27716953 0.38926852 1.0669756 10463908
0.044210698 0.34279907 1.3704844 14153467
-0.046787411 -0.42919883 1.0953624 5264982
-0.94988787 0.75218958 1.9471246 12766924
-1.2128881 1.0183392 2.6261322 4934475
0.034226578 0.038018402 0.68690932 6321279
-0.049384516 -0.47854608 0.79893947 8225663
-0.61043859 -0.41222778 0.99661148 4539458
-0.74677634 -0.5869481 1.2568332 4012860
0.09597294 -0.10168608 1.618876 8358019
0.40783933 0.0084000584 1.1733096 5466487
1.2507932 1.4527503 2.7286565 4802887
0.0084752105 0.28380182 1.5781872 4408642
-0.36605725 0.42146385 1.1763358 8621191
-0.034062296 -0.3906942 0.64342684 10398117
-0.48465994 -0.63184345 1.1817869 4540746
-0.088994101 0.20370215 1.0443963 2109236
-1.5365573 0.7791124 3.8406429 9278353
-0.35601437 0.41955286 0.93863416 4737094
-0.55111027 -0.47977158 1.0164586 7963774
-0.020361044 0.15332486 1.0610813 1840664
0.52266634 0.22245204 1.1064637 9805719
-0.032073513 -0.39960033 0.66529334 3619128
-0.68118656 0.5724057 1.6709096 8883847
-0.20278646 -0.67993546 0.21359964 5724502
-0.11766455 0.60802525 1.1837267 5065032
-0.44509283 -0.68511909 1.2725115 4736065
-0.66122627 -0.60841346 1.4219803 4741994
-0.31569502 0.31085891 0.85637724 3750199
-0.21029218 0.14074519 1.1018029 3552311
-0.20757273 -0.27659145 1.402294 1380115
0.4908697 0.13041541 1.5722885 10266277
-0.43890762 0.067310646 2.2171507 8883593
-0.36563265 0.39419022 1.1318697 3420984
0.14353016 -0.35155305 1.4686493 3354930
-0.59179145 -0.72731358 1.1388917 10398376
-0.45519611 -0.70514071 1.1970202 4078135
-0.46839809 -0.7002371 1.183134 9475473
-0.42771649 -0.51000732 1.087115 9212558
-0.16491693 -0.57126325 1.1918927 5001295
-0.19467086 -0.57472205 1.1967331 1905687
-0.57783204 -0.70058352 1.1330388 4475715
-0.35916302 -0.6452713 1.2209132 2828586
-0.41630802 -0.64300525 1.2201951 4012860
-0.096923731 -0.56615698 1.1389536 1446937
-0.42516616 -0.65657097 1.1848342 1314068
-0.44598284 -0.66238225 1.2217797 10528418
-0.52428335 -0.69975656 1.181718 4604997
-0.5207938 -0.69835281 1.181627 4408131
-0.040940739 0.28333345 1.3168925 9212558
-0.088033058 -0.55262142 1.1643469 1840412
-0.099231184 -0.57300448 1.1650805 9278092
-0.37255916 -0.60233212 1.2125711 1840664
0.073541932 -0.10445971 1.2379434 9147535
-0.55931795 -0.68506259 1.1407009 4210239
0.048311468 0.010178637 1.2487981 2828586
-0.094267443 -0.57960498 1.1543396 3683895
-0.61542946 -0.65496701 1.1446872 11647920
-0.50097775 -0.66415286 1.2053044 2042679
-0.59587634 -0.65740514 1.1454052 5000266
0.067164794 0.33617353 1.2219818 9147535
0.080410585 0.076970674 1.1790863 1577492
0.011532707 -0.16496727 1.1538571 3749942
0.033192322 -0.12595385 1.219923 1511701
0.056509364 0.14061615 1.2094811 1511701
-0.27364999 0.1953806 1.2553582 1511958
0.047485467 -0.066883795 1.2114922 1907486
0.26229095 0.014088838 0.95937288 4869195
0.060784925 0.13701431 1.3020263 3815481
-0.0040288279 -0.062812217 1.2070309 4737096
-0.3802264 -0.65977389 1.2319235 1445654
-0.060253315 0.18226871 1.2787678 4801860
-0.37566996 -0.65702331 1.2225497 4408644
0.11596527 0.43833482 1.2431754 3553598
-0.28452227 0.25695452 1.1823947 13033962
0.18163422 -0.11640058 1.4247262 1511958
0.061673529 0.10454177 1.2277907 4802889
-0.29026702 0.25355706 1.2381395 1577751
0.21263699 -0.078560457 1.4284761 4211004
0.02368892 0.2047644 1.2570115 4079164
0.048804633 0.35796499 1.2645092 12964044
0.15645741 -0.14772601 1.3870338 4676454
0.014568209 -0.060978737 1.1885827 12964044
-0.020281598 0.38334137 1.3716248 1577753
0.05897449 0.16413338 1.1765597 1248786
-0.3157441 0.091844365 1.2515028 2301474
0.043304522 -0.025936354 1.2014604 7435636
0.020701913 -0.0098324688 1.179864 1379861
0.40048161 0.2428975 1.6493647 1249558
0.11945795 0.46831816 1.2262739 1643798
0.50608289 -0.030558141 1.425987 4473665
0.087244555 -0.16946582 1.3589116 2038041
-0.52503502 -0.23806567 1.1621379 4149597
-0.077658951 0.13737409 1.2050954 1708827
0.15831164 -0.04326639 1.0051147 9343885
0.086888492 0.05557061 1.1837965 13099755
-0.43147415 -0.048758268 1.1345811 4018013
-0.13432829 -0.25548106 1.2581915 1775384
0.29363292 0.14794405 1.5977204 1773849
-0.13567774 -0.099702932 1.2835569 9082518
-0.15636347 -0.069782287 1.2459099 2830914
-0.59826195 -0.61862236 1.2553568 1643287
0.081893444 0.18276595 1.2375067 8686984
0.14164309 0.056314141 1.5237538 4474437
0.004758968 0.22610693 1.1910119 3160392
0.022459328 -0.15500784 1.1600585 3356472
-0.54314131 -0.28411177 1.1367583 4078653
-0.085052662 -0.21667002 1.2028048 3490636
0.21043827 0.044170193 1.5074297 1906716
-0.05223535 0.20933695 1.2395003 1511958
0.30818874 0.42401606 1.6579808 1381144
0.25356263 0.38343802 0.99229646 4145211
0.060697675 0.12463832 1.2409425 1446935
-0.059077602 -0.035352718 1.2191498 1380372
0.0057548252 0.32673466 1.1506761 8094331
0.17998628 0.035234597 1.5582907 6779502
0.0099858632 0.11520088 1.0035127 5857635
-0.42662981 -0.57705176 1.0817338 4737096
-0.060791608 0.13983929 1.1378058 1775130
0.27344581 0.19183592 1.6048521 2367521
0.23458625 0.19139732 1.2261878 2500136
-0.31213629 -0.65948015 1.1840178 4079166
-0.021654788 0.29898632 1.1378402 1643544
-0.10152597 -0.16281416 1.1508956 1840664
0.25079405 -0.0013319812 1.4761738 1708826
-0.26019526 -0.21330953 1.2709544 5203314
0.13715804 0.16149871 0.91284549 6779502
-0.51260823 -0.85976422 1.5250487 1511958
-0.05397737 0.12607533 1.1876239 4277056
-0.63484651 -0.45079687 1.0854294 2170656
0.19731392 -0.13479114 1.4199415 4079164
0.28434491 0.56426227 1.7184235 5923682
-0.39938313 -0.27342239 1.2295009 2236964
-0.062491361 -0.36918846 1.1986967 6053983
0.24731886 -0.060513403 1.4920402 6516328
-0.036295135 -0.10068736 1.0860331 2038302
-0.53178638 -0.56554967 1.1759671 11188393
0.18896528 0.012102362 1.3220173 1840923
-0.14273991 0.22164971 1.0959839 1840664
-0.26346782 -0.062387083 1.2560109 1906718
-0.18400244 -0.1427661 1.2418504 2300445
0.077710085 -0.047302529 1.1245167 6516328
0.16688415 -0.10838022 1.1953946 1512212
-0.413699 -0.14621389 1.160269 3355702
-0.41514915 -0.70023507 1.2413177 2036754
-0.12892722 0.27185854 1.2131447 5593947
0.30870482 0.2512649 1.3868462 2104865
-0.39368552 -0.016876062 1.196157 3160123
-0.050145794 -0.35282558 1.1795388 1973279
0.42572826 0.28041288 1.755601 6711129
-0.13150391 0.13237496 1.2425777 6318438
-0.48634824 -0.29078782 1.1359565 5660510
-0.11132856 -0.028886329 1.1004906 9008969
0.1686777 0.10855585 1.3084184 1643546
-0.43471953 -0.10939369 1.080493 1446165
-0.059668574 0.15961188 1.2858931 6387586
0.11265284 0.21700804 1.0612991 2169888
-0.27056929 -0.17127562 1.284116 8549704
-0.021327356 0.051149957 1.0432501 3095367
-0.11932368 0.069679335 1.1287673 5400951
-0.18961005 0.29099295 1.3237631 5068119
0.23720752 0.048854325 1.5619806 5330771
0.14223181 -0.13512586 1.366564 3289398
0.082769632 0.1735861 0.96452683 5199185
0.26228067 0.28238681 1.3742505 7832186
-0.077479027 0.22239593 1.108786 3223859
-0.22069429 -0.40228105 1.1935266 7436917
0.029744005 0.43755314 1.6005437 3553586
-0.38766557 -0.7082594 1.3501861 2102804
-0.053407345 -0.22477871 1.2287517 5922912
-0.18341284 -0.58269697 1.2191124 1380374
-0.5322662 0.016352817 1.10353 1973279
-0.40575421 -0.18418521 1.2100474 4211004
-0.27814999 -0.5094856 1.3151737 5657671
-0.51457775 0.04485077 1.0670562 14742773
-0.20160365 -0.61378473 1.2879254 3092530
-0.45237148 -0.19080168 1.143164 6577482
0.74499071 0.48476812 1.8454664 8091749
-0.1026727 0.37696195 1.0536116 4407620
0.071494818 -0.036216155 1.0353565 2828586
0.074758455 -0.15512751 1.3410785 8091751
-0.43879524 -0.43349952 1.0756764 12766922
-0.085651942 -0.65256333 1.2534212 8556170
0.3308261 0.039759014 1.3536644 3027766
0.30932513 0.0097489553 1.5116783 2302242
-0.11240859 -0.015694482 1.1656387 2236703
-0.070688717 -0.1490998 1.1809868 2039585
-0.83286721 -0.70701313 1.4010086 6316629
0.0031431883 0.039253723 1.0231783 12766922
0.27728719 -0.038588963 1.2248976 8618608
-0.095264673 -0.033841204 1.1826853 3422265
0.08139652 -0.073910929 1.1203543 7700602
0.13209288 -0.35074741 1.0285773 2567734
-0.055607412 -0.20959717 1.1514739 2633008
0.043418072 -0.17910399 1.2051177 11254188
0.61470884 0.11464686 1.5636367 3820119
-0.10626117 0.19162188 1.1122003 8944999
0.062036172 0.30848521 1.095838 8555909
-0.099248461 -0.68290204 1.2052697 3092533
-0.14593288 0.39922765 1.1503429 3092533
0.017528323 -0.38264674 1.1092988 1907999
0.015024631 0.39505798 1.2401454 10397604
-0.35021654 -0.10895468 1.1317645 3422525
-0.035976313 -0.18049012 1.3550719 6908765
-0.24640143 0.0045921784 1.2885624 6580828
-0.23094265 -0.39651409 1.1826481 10794929
-0.41146088 -0.43474516 1.1335225 2299156
0.3290244 0.22331241 1.6326081 13297386
0.074532561 -0.71634859 1.0854019 13560815
-0.41634455 0.55734348 1.3703724 2368035
-0.46354997 -0.027709564 1.1910404 2430742
0.38511345 0.39071548 1.6589562 15202031
-0.19234456 -0.58162612 1.2320879 2236449
0.35691032 0.1801495 1.2240887 2105117
-0.11849452 0.44497752 1.1096152 10860724
-0.73142797 -0.84688503 1.5746537 5863046
-0.10905346 0.064834177 1.1121074 3883846
-0.38366848 -0.64384413 1.1239374 9078899
-0.15338263 0.14563797 1.2017077 1841691
-0.66682959 -0.7273258 1.3696383 9277056
-0.61567301 -0.34241983 1.1154335 12372416
-0.38478485 -0.19659287 1.2231791 11057587
0.09759672 0.19463275 0.98544461 8354407
-0.5086205 -0.24529964 1.1766627 6251349
-0.18141836 0.14040026 1.201124 8228226
-0.084592111 0.10993958 1.3837656 7897203
0.13038197 0.20226999 1.1044933 16645116
-0.47649068 -0.13206056 1.0957806 14545392
0.404623 0.00042044537 1.2943411 3815735
-0.038805023 0.35434702 1.2974838 1511701
0.2600756 0.25987506 1.1198515 3817283
-0.25961944 -0.4786863 1.2667512 8945253
0.05171638 0.42416304 0.86030155 1511701
-0.40596688 -0.51169747 1.0823244 4276543
-0.26021832 -0.64857715 1.3770661 8616804
-0.27230963 -0.079887681 1.2966865 3097418
0.041507866 0.35274339 0.88982588 2963769
-0.2463119 -0.40878919 1.1454942 3161144
-0.085582837 0.11636095 1.1948093 9214605
0.25760895 -0.31348723 1.0860868 3294540
-0.60924977 -0.32859465 1.2172254 14941183
-0.57762563 -0.77110332 1.448149 13232111
-0.15331911 -0.044759672 1.3094392 2830387
-0.15850823 0.19963434 1.1928375 9543568
-0.51601136 -0.031429149 1.1059799 4478554
0.22701035 0.37594277 1.52518 8753793
-0.42815462 -0.064807288 1.046564 8358781
-0.20025255 0.10944287 1.2738901 12966102
-0.60330987 -0.25007132 1.1767507 12834261
0.29515088 0.056635316 1.2430428 9212560
0.12907982 0.17058861 1.0914053 2568498
-0.39707112 -0.58603001 1.152581 12306615
-0.43935844 -0.53797191 1.1337445 3225662
-0.26451364 -0.45224011 1.1291711 4803402
-0.66994315 -0.55726868 1.2423699 6055518
-0.21614447 -0.63751125 1.2753308 4802891
-0.13542691 -0.43348607 1.1116394 3621962
0.17174529 0.39384282 0.88236505 7562848
0.19275121 0.13218926 0.7581982 11517358
0.17739803 0.39178976 0.88308322 7628641
0.17397749 0.39376646 0.88229024 5923680
-0.35469598 0.0025423174 1.2459553 4934988
-0.48157111 -0.38685578 1.1361375 4474183
-0.52877778 -0.62092572 0.97625172 4803400
-0.4901689 -0.057989266 1.0949298 5067088
0.54477805 -0.18509178 1.1640364 4079677
0.032801811 -0.22141087 1.0165997 4803402
0.41057119 -0.13793655 0.93557405 1316373
-0.32880703 -0.74416435 1.2549876 5132367
-0.21184489 0.33250013 0.95090413 4605251
-0.60724336 -0.65338719 0.99730963 9474954
-0.47082591 -0.61408013 1.0364801 9015179
-0.13288115 -0.43531662 1.1084424 9343370
-0.54567134 -0.65195704 1.0584059 5659229
-0.62287647 -0.55013615 1.1674999 10332311
-0.69387954 -0.37703049 1.0642487 4144957
0.01845238 -0.25995773 1.0096601 5067088
-0.49775437 -0.055510163 1.0830311 10398104
-0.25558379 -0.47562501 1.1185136 1314579
0.16150282 0.4004342 0.86096472 5264721
-0.37406814 -0.18888791 1.2503787 5132883
-0.37000537 -0.063037053 1.2552073 3947580
-0.73809201 -0.29882354 1.1491936 5066061
0.060625024 0.4241935 0.84703422 9015951
-0.79720187 -0.39972791 1.2069147 5199187
-0.69401997 -0.37749618 1.0641594 12240319
-0.37102565 0.23348397 1.2905378 1511958
0.18018043 -0.22204365 1.0774341 4342340
0.15548059 -0.1905901 0.91555285 5396055
0.22086707 -0.23520511 0.98748547 5659227
-0.14275819 -0.47661647 0.97311562 1316373
0.11382723 -0.20609362 0.92796695 1510927
0.12908661 -0.25325334 1.0061948 12832715
0.18119814 -0.24149358 0.99582154 7764855
-0.0085688513 -0.24546161 1.0067406 1316373
0.13810068 -0.22517332 1.0211793 1840923
0.21297261 -0.19125675 1.0048205 12833485
0.073019207 -0.27254727 1.0239962 2960685
0.18628845 -0.21760306 0.90068626 5198158
0.10368716 -0.18615511 0.95058 3289650
0.064119674 -0.22804022 0.95970625 3815735
0.031400256 -0.29324108 0.97906554 7431525
0.078362755 -0.24568234 0.97267699 4671303
0.063323043 -0.26989859 0.98073989 9014668
0.015596291 -0.2841396 0.99711764 8950160
0.22404517 -0.308305 0.94462025 4408390
0.14534838 -0.27790785 0.93942058 3153174
0.10499401 -0.23570277 0.92614621 1576722
0.10887251 -0.2095644 0.95234168 1709591
0.030492658 -0.27893934 0.98101443 8950160
0.21913394 -0.20473129 0.89132124 4935502
0.18813999 -0.20883909 0.95758283 9214351
0.085209399 -0.17832039 0.98368943 5329744
0.19676702 -0.14213912 0.9288165 4144959
0.068358496 -0.12599085 0.94757289 5330262
0.20474599 -0.18496116 0.944125 1774103
0.165582 -0.15882468 0.97273707 4868680
0.061554138 -0.16154096 0.61508381 1449505
0.15728666 -0.21060613 0.98146868 1577751
0.16496015 -0.15310434 0.9368667 5263953
0.1318313 -0.30443448 0.96536946 2500134
0.13623795 -0.15298574 0.98515838 1646883
0.10601073 -0.083524451 0.64819944 8226435
-0.017569264 -0.27241835 0.98043811 854796
0.16629492 -0.23864044 1.1277391 4210752
0.21237892 -0.14521822 0.99324638 3157035
0.085252121 -0.12327496 0.92943537 10854805
0.10168611 -0.42830887 0.77696407 1581604
0.12185137 -0.20485775 0.94607055 8948875
0.063200183 -0.30593243 1.0321628 5979451
-0.05836622 -0.46591198 1.0111221 1314579
0.0079724593 -0.25457898 1.071296 2764082
0.11871926 -0.17143959 0.62587923 7567484
0.083072715 -0.33234581 0.66390049 1447448
0.038433384 -0.22735423 0.8268584 1577492
0.063160449 -0.23791933 0.71329397 1445906
0.09978018 -0.13961826 0.64684272 5721420
0.067285679 -0.3385016 0.96603233 1578005
0.070973165 -0.28244132 0.99944979 5396568
0.12735012 -0.12976086 0.96543568 3617586
0.12958844 -0.38717869 0.90201253 3487540
0.10130345 -0.26449221 0.9543786 1380111
-0.041538104 -0.42157379 0.92157674 1182995
-0.047155175 -0.48913068 0.92486584 12701647
-0.040339109 -0.44251826 0.96135193 1515811
0.0096656056 -0.1397979 0.92995417 9081744
0.093485735 -0.059285685 0.49420908 2566188
0.1637273 -0.13239223 0.58873266 12307917
0.048883006 -0.14558868 0.4795031 4869711
0.089935645 -0.21912508 0.51939368 5922399
0.047209557 -0.42942071 0.93639976 2171171
0.078481533 -0.32300189 1.0190896 7762016
0.028491065 -0.24502349 0.88631022 3880758
0.13645823 -0.12875354 0.44425765 7831679
0.17804664 -0.20183747 0.88823366 9075556
0.098699905 -0.42698389 0.91883242 2697772
0.10591333 -0.23298392 0.93403912 8621195
0.15970699 -0.09187264 0.61657304 3092012
0.10891499 -0.21796896 0.94022489 4473924
0.657794 -0.39829999 0.80920208 2697774
-0.10742261 -0.46699169 0.97203404 8950160
0.077780269 -0.0857834 0.90340644 1775130
-0.064257316 -0.38447443 0.83261794 1249558
0.20448695 -0.23713256 0.42174393 2105378
0.16798508 -0.066382468 0.7451424 2434600
0.049796183 -0.25151762 0.91581714 4734525
-0.04869825 -0.17066836 0.93707925 1710620
0.46389669 -0.19451417 0.84158307 2368039
0.17685352 -0.050165687 0.35501677 2697261
-0.35081056 -0.50713706 1.0786456 854800
0.32758138 -0.37251082 0.77614468 1711394
0.054254837 -0.47810528 0.89385331 10859693
0.36531341 -0.20490018 0.8719964 12306375
-0.54801548 -0.33544573 1.1230077 1842466
0.12908083 -0.039010894 0.48783693 10991279
0.073968418 -0.077736668 0.71871448 1842980
-0.081077203 -0.46647158 0.93502998 7893602
-0.80368721 -0.28409618 1.2101856 14148575
-0.0039306502 -0.090996511 0.79818386 8950669
-0.63691419 -0.34765279 1.1681433 1578003
0.11876267 -0.018461552 0.74421865 1314579
0.065985911 -0.34307882 0.89002484 6969169
0.1559913 -0.51294684 0.90220815 3620157
-0.53782183 -0.53670907 1.1490015 2104867
0.10983257 -0.035414897 0.77912217 1447446
0.50638378 -0.48444393 0.9917956 4737094
0.16500854 -0.51561624 0.90541202 1380372
0.17702 0.027563103 0.34503782 7232343
0.088200927 -0.11676805 0.59529656 1776160
0.16820775 -0.22378622 0.78823322 1644825
-0.0082100686 -0.42955381 1.0473869 1380626
-0.54801989 -0.35051751 1.1454493 1511701
-0.63561302 -0.32267091 0.93772185 6317935
0.21768475 0.00070052966 0.41182974 1380626
0.26906621 -0.12365453 0.51395077 1446937
0.58337247 -0.57971132 0.92459542 11057072
0.11112221 -0.20633467 1.0456724 2764337
-0.4275713 -0.22657691 0.95995134 7042163
-0.49012536 -0.30645603 0.9925921 13952995
0.16329847 -0.20340443 0.47829273 2632749
0.13333677 -0.044143014 0.34050283 1647405
-0.00039985217 -0.32751715 0.6716823 5792356
0.11104272 -0.13353422 0.79352796 9078905
-0.64393324 -0.39480877 1.0701879 3684406
0.17799133 -0.11357576 0.093912676 4145470
0.30859271 -0.10329937 0.91828871 1778216
0.28640193 -0.063889682 0.65836573 1249554
0.26802382 -0.17387399 0.4734439 2698026
0.12889756 -0.14331962 1.1316562 6055787
0.59932411 -0.57646906 0.92492753 4737856
-0.1166718 -0.012891441 0.78996134 9802369
-0.48558521 -0.23483434 1.0229653 2632751
-0.0038210955 -0.45971894 0.99276185 1711649
0.053048208 -0.28390574 0.61473888 2960946
-0.22005488 -0.48481545 0.94938976 8292739
0.20479068 0.19198486 1.0653957 10990000
0.16548701 -0.18906701 0.38307095 2697515
-0.54439425 -0.16528939 1.2292557 9344134
0.54170513 -0.23948298 1.2032772 1907488
-0.69377631 -0.36751726 1.0124846 10462100
0.11627021 -0.041812338 1.0926204 7694421
0.28992483 -0.12447185 0.42700085 12240059
0.27765512 -0.16832022 0.49943632 2170660
0.60558951 -0.36435634 0.99583834 9933439
-1.4842037 -0.57559669 2.2624521 1973281
0.18536632 0.030573562 0.34191447 1380372
0.29868323 -0.2414801 0.4611088 2304036
0.2086754 -0.13806227 0.26829904 7497555
-0.013112495 -0.34772542 0.78389782 6775889
0.011699745 -0.4484528 1.0114148 2895923
0.16730423 -0.05819628 0.40108112 8555651
-0.27794918 -0.22892982 1.1066064 1909802
-0.2221553 -0.43881166 0.90887535 8029567
0.46507406 -0.32857582 0.77495402 1975849
0.86645466 0.21653421 -1.0297335 1909802
0.27736896 -0.37518939 0.9625718 1117454
0.0012845286 -0.41518903 0.93219948 5659229
0.6233049 -0.41356337 1.1170099 3622213
-1.066119 -0.18324764 1.5708616 2631979
-0.58355027 -0.29955593 0.90729475 3027766
-0.47541201 0.011172649 1.0308745 7694934
0.38146922 -0.32738847 0.71142226 11647144
0.16977227 0.033706136 0.48942113 1380626
0.18609513 -0.10161954 0.3031311 2236453
-0.025419755 -0.005754279 0.69326216 7826770
-0.2444786 -0.24071634 0.89335787 7832699
-0.20003714 -0.05398339 0.87174076 11780281
0.013178907 -0.35737699 0.7511875 1841695
0.15483944 -0.035917632 0.25040683 11648695
-0.71754748 -0.20748611 1.1262493 2565668
-0.83938003 -0.23114283 1.434631 2170658
0.28060788 -0.033798479 0.35430977 11382939
-0.19556932 -0.054567028 0.92660403 2239021
-0.069537535 -0.091440678 0.91096461 4017484
0.049018454 -0.13441694 0.66238075 11056047
-0.014510565 -0.28284243 0.70938045 4280656
0.0059408802 -0.25622573 0.66656214 14874616
0.21748273 -0.16313674 0.30030003 8424576
0.22285473 0.0080802701 0.43460539 7039061
-0.015939325 -0.28297669 0.71130586 8292477
1.106178 -0.038202319 1.4482166 8556164
-0.65843958 -0.31347218 0.88828188 12438209
-0.66000926 -0.31287235 0.88760245 1709589
-0.005650817 -0.27063671 0.69221532 4534553
-0.42863512 -0.33838293 0.96871698 8155737
0.21731919 -0.16407606 0.30176401 527373
0.95338112 -0.15595973 1.2494087 6182988
-0.046947517 -0.089130506 0.72624606 2830126
0.90295374 -0.15807758 1.3167096 3226429
0.65901715 -0.16266023 1.1132077 5658699
0.71611178 -0.47903818 1.1213255 3548695
0.3102656 -0.28443718 0.54690504 12637648
-0.032418888 -0.30257618 0.74159652 14940409
0.21922214 -0.16395254 0.2989074 3942934
0.091267839 -0.15346 0.58827817 12307400
0.11221094 0.065316208 0.47201276 3022102
-0.39263883 -0.15649408 0.975757 6182988
-0.41732514 -0.44395709 1.0314513 8090714
0.20929654 -0.1649131 0.31421614 14416126
-0.11463667 0.029168803 0.92116714 8292480
-0.40271783 -0.56655496 1.1495525 9341302
-0.083591849 -0.47634038 0.98938245 9274996
0.2183125 -0.16311179 0.29909411 7762010
-0.11499563 -0.076791927 0.69828516 8753543
-0.21010542 -0.014948124 0.874623 2891030
0.00088702177 -0.2633431 0.68403244 3021588
-0.45331913 -0.0053375671 0.99469048 6054747
0.27554992 -0.38292468 1.1499976 1380375
-0.26258135 -0.0020943389 0.89957947 1249558
0.083992213 -0.1441164 0.43250424 1316122
0.69629747 -0.11799314 1.2185622 3162443
-0.023357432 -0.29290834 0.72004223 1381402
-1.7142628 -0.19975975 2.2120085 1316121
-0.23544443 -0.011564638 0.89339143 1316121
0.048470378 -0.26676577 0.93617672 9805726
-0.70797712 -0.20337245 0.93658406 1446937
1.1425292 -0.03907181 1.4577844 1643544
-0.0050089159 -0.27031159 0.68502223 1250845
-0.06816414 -0.082210459 0.76217645 1643544
0.83121455 -0.083110362 1.3614109 1446417
0.1584035 -0.12029628 0.21026641 9672859
0.19272479 -0.25400937 0.39704123 1380889
-1.4367681 -0.21642938 2.0349047 1446417
-0.40299505 -0.22020721 0.99996883 10463399
0.30653477 0.017852709 0.32384381 1448222
-0.03852256 -0.051850557 0.69962806 10003367
0.19695368 -0.16720515 0.33468574 10661295
-0.47143307 -0.23156685 0.9890992 10397866
-0.35845143 -0.18814352 0.63689142 5002327
-0.31530556 -0.19654788 0.11175027 1711907
-0.1676943 -0.01691455 -0.040067028 10661548
-0.38236606 -0.31796339 0.33075622 10925236
-0.35414547 -0.31274822 0.18280651 10397353
-0.39236361 -0.28229621 0.26649266 2171169
-0.40024066 -0.29862598 0.2075275 2497826
-0.3396453 -0.1975354 0.21225061 10662065
-0.4196448 -0.26515487 0.30357882 1775384
-0.22090927 -0.076726146 0.1459126 1381401
-0.36490652 -0.1816467 0.26708052 10595244
-0.21149597 -0.063108496 0.088981442 9213592
-0.36386827 -0.31050953 0.19904421 7831936
-0.33851916 -0.22913682 0.20206617 2368296
-0.34402314 -0.21221508 0.14862806 1578521
-0.33601457 -0.18671115 0.19089158 1445908
-0.36872354 -0.24942946 0.14143875 10266277
-0.35564804 -0.20591213 0.19192059 2038043
-0.35241419 -0.19302361 -0.037833109 2169627
-0.38496843 -0.50917143 0.19210894 8556405
0.010526067 -0.020862687 0.16257712 9343637
-0.34370703 -0.25903282 0.18428333 10595755
-0.37686425 -0.29724357 0.16492055 12175288
-0.35259041 -0.27928698 0.15793438 1380372
0.33159733 -0.23960018 1.4833932 2963003
0.2946378 -0.22055225 1.4989423 4016204
-0.035551243 -0.064233154 0.58575922 9408912
0.038895112 -0.44412285 1.9425669 8818831
0.030989951 -0.39763573 1.4796047 2761766
-0.01096733 -0.19577159 1.4622804 8422535
-0.58440781 -0.18098167 0.53984648 8751500
-0.25889391 -0.11510114 0.19137056 2630180
-0.0280746 -0.0063503301 0.029769573 7897970
-0.054960761 -0.0011842418 -0.011016841 7764087
-0.37146437 -0.28703532 0.27307788 13031891
0.012217836 -0.05056319 0.11138265 6055001
0.78360742 0.90912241 2.9276087 13032145
-0.56338042 -0.21797144 0.50819391 1380113
-0.071461603 -0.35780182 1.6392906 10462625
0.023148717 -0.031199915 0.14092521 4011061
-0.52170092 -0.12757209 -0.30543506 1380113
-0.014009054 -0.0024189809 0.051896531 10266280
-0.032649029 0.021738626 0.044162586 12176331
-0.26411545 -0.043639369 -0.20989248 1381402
0.33570787 -0.13669024 1.2268416 6778737
-0.1792485 -0.044760007 -0.054469392 7623502
0.12659511 0.25897929 0.94932264 3289912
0.2183228 -0.3890729 0.74491751 9740688
0.19528934 0.28534538 1.6713505 11114632
-0.33904582 -0.57488698 0.20651668 7227461
-0.48762795 -0.23218407 0.25316417 7623502
-0.41234991 -0.28342664 0.9811247 16645631
-0.30177978 -0.11400352 0.0055463556 7626839
0.046534091 -0.23967199 1.3561195 1578005
-0.33991089 -0.16528012 0.15260606 8812661
-0.056340199 -0.0037744292 -0.015924709 13364467
-0.32807896 -0.21107869 0.01400259 7173755
-0.26268992 -0.11083497 0.13351248 10593951
-0.16480459 -0.0075424705 -0.14828879 9670015
-0.067355186 -0.0083594266 0.070279136 921361
-0.12258179 -0.58921528 0.51689899 2697772
-0.078858823 -0.69013709 0.66166741 3160382
-0.0092458092 -0.012495288 0.040362772 922131
-0.39558706 -0.21730515 -0.20467579 12767951
-0.40834674 -0.54119349 -0.095606357 13229019
-0.043438576 -0.6209653 0.335839 789257
-0.44707784 -0.23472443 0.11800089 9464928
-0.16775012 -0.018860001 -0.15257466 2829360
-0.052868064 0.00051315769 -0.012125663 5325375
-0.11227375 -0.02837185 -0.048211291 1514266
-0.053812452 0.0037794081 0.0042249053 2830128
-0.054582804 -0.0031970707 -0.0090886373 723723
-0.39136109 -0.22338407 -0.20259407 9467497
0.080318749 1.4599947 3.4340277 1053717
-0.4035413 -0.24829148 0.06198249 987924
-0.061596274 0.010065762 -0.026184425 987408
-0.13673697 -0.53311849 0.65815508 3026226
-0.14295562 -0.52689743 1.1062987 1846840
-0.15228362 0.0043861889 -0.095183447 987924
-0.0081809489 0.023124212 0.11046313 3226165
0.1972131 -0.10195096 1.2331372 4277833
-0.057953659 0.0097910408 -0.024078649 12371897
-0.62952077 -0.019528573 1.0974051 11846841
-0.46664417 0.091024913 2.178117 2106664
0.036386665 0.12248345 0.27002808 855822
0.090773903 0.32848901 2.0920725 855570
0.10702798 -0.029418398 0.60583669 13294297
-0.055362727 0.0017284577 0.012074124 14085094
-0.056420468 -0.004264331 -0.016165061 4277833
-0.054982577 0.006527273 0.011455159 11648693
0.086957514 0.28059319 1.9529595 6381133
-0.048294086 0.036210433 0.069429114 12966619
-0.023248464 -0.031113459 0.40498325 3817272
-0.34512332 -0.52109808 1.0634685 13097936
-0.15817751 -0.2097466 0.36768985 5791576
0.15218838 1.3062344 3.0909488 329476
0.3436037 -0.2651915 1.3649129 7896690
0.42659998 0.34283343 2.176048 7369578
0.12904285 -0.33807084 0.73597842 7501416
-0.020964161 0.030325191 0.060971074 6382681
-0.10200876 0.0026776907 0.032313209 11186091
-0.015486859 -0.015173496 0.10896946 2570563
-0.34577447 -0.31464276 -0.21934831 4739141
-0.40016991 -0.22431161 0.024859732 11123119
-0.3280901 -0.63219976 -0.11133943 4080698
-0.031260289 -0.010803847 0.055699337 10001799
-0.37545788 -0.6305272 0.40593979 3943191
-0.45471394 -0.15660961 -0.25319159 7634799
-0.10830688 -0.005928569 -0.0049163201 7830381
-0.50012892 -0.56523502 1.0348797 2368289
-0.056109421 -0.00012055632 0.01407844 7370346
-0.34323302 -0.35524371 0.060887247 2830378
-1.2893826 -0.023240343 1.3637779 8021846
-0.95716912 -0.35638008 0.78604817 8552812
0.18886496 -0.58634859 1.1910827 1710879
-0.48102289 -0.38363343 0.34890687 2439490
-0.055912185 -0.0062234085 -0.014572619 724236
-0.13593689 -0.013291585 -0.022222232 8621693
-0.31106815 -0.58615702 0.91899401 12570565
-0.40538442 -0.27880904 0.16521582 11649720
-0.11590984 -0.0046350276 0.0040954407 2171169
-0.55999136 -0.53719407 1.8238573 11450290
0.020481145 -0.1288422 0.93535691 9602931
-0.33310768 -0.51306051 0.50177193 1051148
-0.3303929 -0.47897512 0.77409905 1641996
-0.5329771 -0.40241131 0.23725724 7894370
-1.3464122 0.011612619 1.9732461 921361
-0.37645108 -0.28946039 0.15863061 7632489
0.17744426 -0.46173036 0.89968383 12501160
-0.86657375 -0.048720658 1.523002 13361367
-0.36477196 -0.29721582 -0.10411483 5460033
-0.94212854 -0.34206557 1.5241975 5394240
-0.36791557 -0.28368649 -0.081310719 5002311
-0.017804859 -0.030826652 0.09734112 8157797
-0.17400485 -0.63094079 0.249166 12831165
-0.46846533 -0.35274571 1.1332732 5922134
-0.44382647 -0.19969092 0.15968128 1974303
-0.41540059 -0.21656124 0.049862195 7367250
-0.33163697 -0.34888625 1.0023223 4014400
-0.26038527 -0.22404633 0.8404963 11582389
-0.045057468 -0.53078246 0.51747108 10063999
-0.20421781 -0.27241278 0.67114615 5131327
-0.45326427 -0.21460061 0.13444255 1118222
-0.17138359 -0.18822266 0.92877209 7631451
0.033512432 0.11555548 0.24060038 2040096
0.72113794 0.0068316464 1.3382698 10262150
-0.067539737 0.010414981 0.019115986 8884865
-0.12176756 -0.48771039 0.88438278 12896433
-0.12188298 -0.040758427 -0.064922497 10924461
-0.2897059 -0.25876027 0.39591584 8354406
-0.50503081 -0.39585429 0.10429871 6119763
0.095723338 0.18481596 0.39180592 11187629
-0.58394128 -0.51137322 0.17944463 7697244
-0.1196856 -0.038482908 -0.06345237 855568
0.0014735155 -0.022520145 0.057090845 855568
0.016591936 -0.70831656 1.2936513 11318704
-0.088582911 -0.59704512 1.1487778 1250326
-0.3758778 -0.64768761 1.1674098 8091232
-0.33238322 -0.29772982 1.2073201 7631451
0.033560876 0.11559802 0.24063469 8028787
0.26461437 -0.086293288 1.0313199 11254964
0.81889099 0.89379609 3.1989052 5987923
-0.15335973 -0.071028277 -0.10248958 4215390
0.09745913 0.18448882 0.39252594 5921873
-0.3326329 -0.29753551 1.1971335 11647922
-0.46916768 -0.36975223 -0.10175334 8222818
-0.12204733 -0.041407377 -0.065933935 8753793
-0.65960264 -0.079096287 -2.0080309 8024164
-0.43343493 0.09422911 0.1812554 7108718
-0.52103579 1.2905593 4.2855034 1052427
-0.21087199 -1.1634004 1.8614939 8420714
-0.21730043 -0.10475603 0.87012386 7437422
-0.31785557 0.046017997 0.24958834 2039844
-0.55604011 -0.76827788 0.68890411 10662049
-0.30727014 0.59831089 -5.2073178 8157025
-0.31057566 0.30649149 -0.85984749 5989976
-0.4163779 -0.1312996 -1.639675 7634799
-0.40340048 0.30579644 -3.8196118 11581876
-0.4673669 -0.32132488 -2.240778 4739141
-0.31530178 0.11208818 -0.033542521 3356470
-0.4189319 -0.061504398 -1.9639381 7370857
-0.19297694 0.22051038 -3.7625556 1251098
-0.32059577 -0.01811352 0.66304123 8815727
-0.37111455 0.32023147 -1.2231152 12896433
-0.41449308 0.0078090928 0.0019613618 4211255
-0.65126348 0.034895539 -1.1264114 6383962
-0.67850721 -1.0806462 1.1396965 1117972
-0.59141362 -0.51898021 -1.7994354 7105107
-0.30851492 -0.54248995 -1.3356578 7697244
-7.2720518 -46.711449 166.64464 12435627
-0.38935032 -0.47831264 -1.5472056 2501163
-1.0973407 0.031400729 -2.8707912 8420714
-1.633521 0.23142914 -3.8248415 5979451
-0.26026583 -0.41318068 -2.94239 2042933
-0.51934701 0.39804626 -0.90889448 5197120
-1.103379 -0.03040025 -1.5880524 4079158
-0.6542204 -0.74447572 0.67111641 16777215
-0.01231344 3.401619 -14.793754 1248525
-0.017204918 -0.16266258 -0.24186273 8881777
-0.40141326 -0.59817237 -1.2975895 7826518
-0.22988644 -0.58012855 -1.195788 8688023
-0.42156407 -0.47156715 -1.738055 9078907
-0.44049376 -0.58447939 -1.4438264 4015695
-0.6623494 -0.6123082 0.69492561 8227475
-0.070510097 -0.50691146 -1.428033 9078907
-0.85615093 -0.13755971 -1.2024817 1052439
-0.66004342 -1.707319 -4.281168 8884634
-0.578269 0.38139841 -0.038511232 9081756
-0.18023337 -0.9142797 -2.6833861 788489
-0.3696709 -1.5332748 -3.7124705 7634310
-0.88572329 -0.92279196 1.6488129 854282
-0.49507222 -0.42060953 -1.6321301 10328975
-0.23438188 -0.42856488 -0.42062521 2300447
-0.77625489 -0.66834182 -2.8747761 4473160
-0.40371335 -0.14898877 0.61797971 3156785
-0.37110391 0.5063867 -0.17789768 9142909
0.48946247 0.090185158 -0.5798701 2959147
-0.14764518 -0.51212353 -0.50425708 4795438
0.50892818 -0.016063334 -0.69870222 3550514
0.343835 -0.067410603 0.17642017 9867145
-0.33790907 0.48270684 -0.2983833 9603973
-0.21409945 -0.28185645 -1.0910586 9471874
-0.48687977 -0.5859828 -1.4991112 8487048
