# .PCD v0.7 - Point Cloud Data file format
VERSION 0.7
FIELDS x y z rgb
SIZE 4 4 4 4
TYPE F F F U
COUNT 1 1 1 1
WIDTH 913
HEIGHT 1
VIEWPOINT 0 0 0 1 0 0 0
POINTS 913
DATA ascii
15.583576 0.18981214 -93.907753 1266152901
61.664238 45.415909 -82.904221 1266679242
59.760357 44.177483 -80.491577 1266679750
3.5891418 -0.25072205 -89.44593 1248388212
2.6525781 -2.5877571 -76.847015 1266613984
2.6161654 -2.5561717 -78.726707 1266613984
4.82335 49.759533 -121.1918 1259244396
-21.19298 10.196571 -35.456718 1266679524
173.72522 -6.8711529 -268.04913 1259638640
26.74824 -18.288397 -126.86382 1235265632
52.597729 -23.610655 -68.642906 1263785140
844.64111 29.534729 -1308.8407 1258389865
37.207775 0.16761108 -120.3905 1266351327
112.60036 -6.3781581 -221.30643 1261547174
3.4963329 -0.1214797 -74.516449 1245754464
4.4971695 -0.25251737 -9.8593483 1260758160
1.7076068 1.9538575 -92.140869 1265166277
18.969671 -17.466122 -120.19661 1244168280
-17.862724 4.4675503 -30.068056 1250991720
9.24154 -0.34240055 -20.933134 1242594392
-5.1160741 1.8761312 -28.9508 1262664101
0.16708079 57.110519 -446.74283 1254670480
147.93361 -11.10673 -293.39313 1263323307
47.007389 -21.304747 -60.983902 1263851186
65.964592 -2.2068515 -142.21404 1242857564
-9.9662313 -1.4874717 -35.784157 1260888723
0.12445212 49.949657 -379.72937 1263980988
487.47424 14.389415 -755.76733 1260692620
-6.5667796 -0.29158363 -56.986206 1260824206
-8.9179573 1.8930279 -31.528563 1261877657
206.11319 -2.6915438 -331.62021 1224769536
-5.2864828 -11.865899 -78.800064 1234194600
-23.447447 -31.547905 53.073895 1259770461
55.498562 42.299351 -78.496384 1250710542
38.57729 42.448086 -86.749191 1252432468
4.986692 18.957647 -161.46458 1264837318
-4.4472432 0.36520016 -60.637917 1262072479
-11.337882 -3.3011718 -39.70118 1259508352
45.469723 -20.350986 -58.425873 1264311223
8.2904882 55.935226 -144.50568 1257159804
-22.706697 3.1842835 -33.746632 1263586987
-12.21549 7.6915483 -34.05381 1251639380
46.743103 51.05537 -104.03207 1255457408
13.396946 25.178827 -240.89627 1250856530
58.385685 -26.034544 -74.493996 1264179891
1.9202789 50.988091 -118.33869 1259303507
-11.311925 -2.7504697 -45.344185 1259706748
23.865204 -15.460735 -108.64323 1250332280
-8.0795279 2.4951322 -39.821918 1262270620
-16.813999 5.4519515 -28.838936 1264313025
385.31882 11.353946 -651.40857 1259180151
13.844903 -0.00016949589 -80.857445 1259179359
-19.620821 -2.2673633 -53.25589 1237354608
7.7446532 -27.041824 -132.40735 1259773065
-10.166861 3.2144358 -51.154884 1262204573
-11.722012 -1.3508918 -31.097534 1238401152
14.225549 0.42525682 -85.589661 1265558194
-9.9048605 -2.3598373 -49.612701 1260299139
12.328681 44.951481 -249.03296 1243381852
11.862355 41.806892 -226.46252 1243645024
34.036877 -17.168716 -126.13029 1218519040
-11.530536 9.9917526 -60.29882 1261612181
-11.255034 1.2252971 -38.273888 1261745049
-18.018723 5.0103207 -31.479507 1263392183
4.3072982 4.9459009 -121.13037 1265955539
11.740391 43.068748 -331.23364 1264310974
24.043436 -20.129393 -126.13125 1259312261
2.858753 34.939583 -153.29005 1254801582
0.61108959 18.21703 -77.806992 1253750434
59.600491 43.47858 -97.559364 1264705463
-23.731781 2.8872406 -36.261726 1247328440
310.66638 -9.377265 -511.51144 1260626566
56.567669 46.27182 -82.313156 1257020120
36.769272 -28.34322 -48.388523 1258780004
-1.5350397 -0.63173074 -69.835938 1242328172
-17.644186 3.4256692 -29.802277 1251769136
84.11911 61.145195 -137.32899 1264705463
7.3281603 60.099117 -363.24405 1254012054
28.127539 0.018097732 -112.90101 1266679272
-2.1674917 -2.0057588 -71.616592 1239988416
0.6482625 1.4477897 -2.8599908 1266679806
22.345324 -14.593398 -116.09261 1260298641
18.6502 -19.136875 -120.06575 1259639431
897.70691 -50.303917 -1957.5835 1239453760
36.574837 -28.335968 -48.243969 1258780004
-10.664665 9.4379339 -57.315586 1261743767
-8.7076035 11.889234 -66.504097 1258587252
-2.2768743 -2.2933917 -71.453041 1239464128
-1.3110056 4.9478788 -103.94493 1245749380
330.56442 -13.95437 -598.57294 1248875572
-11.960553 -3.0974886 -36.975636 1228931360
56.558525 -32.031082 -184.15118 1257835764
-3.3640699 7.9430561 -102.30466 1258649728
1.9303848 56.916214 -318.79605 1246805144
78.951729 63.229355 -135.57736 1249687632
31.897776 -9.0342331 -76.098106 1236308104
34.778683 -24.155016 -47.164005 1249931850
-4.8396554 -1.0842842 -59.747101 1241542724
69.567192 49.868469 -113.1843 1265100998
-644.52631 -98.252525 1021.9642 1236842584
11.117264 22.039284 -105.15602 1244179564
49.055931 38.154644 -70.944252 1247841280
4.7164826 6.2178206 -11.645391 1264173208
17.438192 -1.0721561 -87.344978 1266679786
10.137831 12.953211 -22.380192 1257428590
406.0834 12.82227 -722.26147 1246802096
1.301905 18.872887 -186.20642 1259573878
52.407799 42.806019 -91.142616 1251240492
18.731335 -0.55929273 -94.17981 1266679786
223.235 -2.1403368 -390.70425 1254006398
-5.1149626 1.4207152 -57.580685 1246272612
38.985336 -3.4238014 -61.847214 1235247104
-1.30337 1.3008294 -82.868256 1244167300
-11.410496 1.5637664 -33.38876 1261417621
33.511723 -23.867535 -45.80584 1250194522
17.694689 -1.1541358 -88.37088 1266679784
346.63461 -18.27393 -614.82971 1255308916
35.953892 -25.365067 -49.030098 1249434776
-19.330738 9.3243895 -34.396179 1264770239
-13.368276 0.11030513 -36.728493 1251369276
-4.9031453 0.11179419 7.5638165 1250055222
3.1817176 4.4124928 -8.2430048 1253737516
3.489212 -12.038998 -88.859398 1255858892
-12.120672 1.9221312 -32.6231 1261614745
3.5322196 -15.839037 -99.1101 1258521983
100.11044 70.394302 -464.33557 1263261118
28.239647 -17.274364 -120.12304 1199669248
-4.3531876 -0.99204856 -52.789719 1241542724
20.396608 31.590599 -196.56812 1252693620
-4.0671601 0.45621225 -70.09304 1263454640
-104.70714 -124.98107 230.33366 1257163894
-5.0575266 1.8427738 -57.169544 1244957764
-14.939533 -6.6227827 -33.771397 1255068370
-18.142456 -69.690399 295.51904 1247071392
32.523952 1.8630189 -118.44489 1266087646
54.7435 8.9125719 -96.05072 1249401888
-12.858887 -15.162579 25.757437 1260294236
-12.239242 -32.446312 149.23036 1256645832
36.599579 30.633911 -219.13777 1263852225
98.287346 17.548857 -171.4037 1241018408
1.58734 -17.936749 -114.55911 1240518904
-7.9707866 4.8933029 -30.349787 1259967105
39.529903 33.88377 -62.040722 1248610364
357.7623 102.55485 -510.01578 1251656340
0.072284594 -4.4589415 -28.101233 1241542788
0.99587959 -4.1067381 -77.045998 1242067028
30.028448 -18.554567 -131.38509 1241548912
-29.000675 -13.214046 -66.969231 1254936784
86.660339 53.272667 -350.63748 1260169617
-17.539469 3.5789738 -28.279543 1250328142
-4.1344151 3.7321937 -70.369385 1249170576
-13.382628 -51.620949 218.21297 1247071392
0.46747664 1.2009997 -23.886108 1261547405
105.71373 58.486664 -131.5182 1252422672
1.4437604 -46.932175 -293.41214 1239466224
9.7290745 15.834809 -177.10435 1266679262
-65.761719 -48.334213 -163.57213 1239489056
0.1171601 -0.75777417 -94.340385 1243118680
258.95688 74.460846 -370.51886 1251919512
-13.532889 4.1325974 -31.027603 1262602148
21.723574 41.002117 -296.86426 1264114111
-12.748456 1.88748 -31.474106 1263916738
-19.67465 8.8299875 -33.981056 1252432986
179.86311 -7.619175 -413.2417 1254799408
52.907501 -20.927429 -67.012161 1242854488
-35.295574 -15.273757 -77.565331 1255462112
-13.461018 0.081518725 -35.828594 1252816736
-12.922024 0.072393313 -34.320992 1252816736
-24.521645 -11.226723 -56.277115 1254935756
36.336163 30.448359 -269.35007 1260628105
21.45722 36.614464 -271.9306 1264047804
76.080269 42.244202 -95.015816 1252422672
-10.729942 3.5219805 -42.813858 1262469280
163.26988 -9.5473528 -278.44034 1250323536
46.703804 37.147835 -63.198223 1262384387
-14.08209 1.8849466 -34.235828 1226874880
46.334793 46.088913 -95.107979 1249928742
40.571533 -24.246246 -52.125832 1265362623
24.333755 20.812366 -182.93083 1262075551
34.870567 5.6103001 -105.58305 1244440704
133.44788 -17.77914 -267.59464 1237362792
-8.1371756 5.5361714 -34.14204 1260625035
-9.7976484 6.7893691 -41.800266 1260756621
10.530302 -17.257076 -92.615227 1259641481
-293.16736 -49.512535 606.28436 1245211152
-12.812429 9.0792646 -55.717911 1260954000
-6.8803692 11.69869 -40.299461 1251380314
-19.106039 8.6662655 -39.187794 1252430434
-9.6606884 1.4915898 -37.206863 1262140060
-15.637713 3.6941428 -31.014732 1262340263
61.383095 141.87666 -825.3205 1242329140
120.51646 -19.592836 -162.03496 1253223046
-11.016594 1.9478028 -42.688366 1262008727
-3.598351 3.1956558 -53.778679 1250453076
-14.740055 9.5495052 -58.728745 1260559244
-4.2533259 3.9769762 -65.243927 1250189904
-24.600361 -5.5841837 86.682167 1266679782
14.256323 9.9745264 -146.05048 1266679772
-11.697742 1.840814 -45.681492 1261745302
-19.764547 10.779726 -35.486984 1261742981
19.000267 2.329757 -130.56474 1266679772
-4.4729161 3.8922899 -67.839088 1250453076
75.095848 -30.340736 -94.050308 1246539916
5.6096549 -12.630926 -95.211159 1260298641
48.447075 47.300625 -97.123009 1257558672
136.58401 -17.679131 -303.83826 1236312136
-26.33663 -9.6510401 -54.09066 1239472416
5.6459846 -12.701904 -95.751205 1260298641
55.719131 12.763148 -188.13301 1264312005
62.638103 54.591831 -114.5612 1250718768
-11.89486 -28.634775 84.089859 1262077861
-30.866646 -27.351604 56.392769 1255191660
0.42345843 -4.6921062 -75.930031 1243381876
12.62829 15.328562 -160.76138 1263456175
30.809776 21.776337 -220.99878 1262863528
36.10397 8.2633333 -134.27313 1265496787
-18.939896 0.18832698 -33.179192 1250451730
-67.517838 -59.840881 123.62614 1255452774
66.081642 -39.751354 -90.399544 1251380856
193.29051 37.9883 -367.87115 1236830288
-52.328083 -49.727947 101.8558 1257164944
279.77805 -8.7843962 -385.74261 1238427912
-0.29520595 10.60778 -144.12744 1261612440
72.304352 57.851719 -119.55655 1259227141
316.09232 55.909954 -491.95023 1240541376
-10.555204 9.9462814 -53.922138 1261611928
-17.393126 0.76729363 -31.511189 1243382920
-15.767717 4.0127087 -29.658482 1262603181
61.266708 57.880989 -119.09953 1256114316
79.132622 56.272106 -100.07585 1266667265
47.868156 9.8465023 -159.98701 1263719871
14.733355 -12.724072 -69.844025 1259312516
-72.975304 -112.51975 599.76971 1257700050
50.390938 46.791851 -97.402809 1252955220
-12.05016 -1.8592527 -39.481468 1235767392
35.746033 82.708366 -240.51193 1262077861
-22.077774 -0.61475497 46.182465 1240004760
484.46198 122.90361 -637.33472 1261224099
-50.972389 -212.86124 820.60376 1252963998
-24.114164 -2.8585112 -41.498188 1235777616
-8.5090418 10.835714 -48.086472 1251904104
-14.836296 4.7687993 -33.230404 1262733481
31.407593 11.298715 -156.17375 1266284758
62.012047 75.257301 -158.74068 1265761500
2.1471956 -5.7339749 -59.827007 1260035984
-16.618315 8.7171259 -32.555038 1254931076
-13.213856 2.8374383 -33.99157 1261746585
-15.373827 1.7187402 -28.978102 1110179840
91.413422 50.320816 -119.20797 1262203533
-9.622695 11.244237 -47.959347 1252428896
-12.555795 3.7309117 -28.367281 1262799274
78.694069 55.137951 -101.67947 1259301888
-17.205648 9.3930864 -30.925714 1261611142
-13.76339 2.7825799 -31.446964 1262141343
-12.173703 2.2051914 -32.198044 1261681305
-18.110807 0.86607683 -32.989697 1243383948
1.5030565 12.87711 -151.47523 1266547676
-15.070234 6.1046762 -48.100914 1247331464
40.436859 -6.76717 -73.889214 1236306032
78.779137 37.398178 -361.39478 1265233360
4.9924407 7.647655 -38.656364 1255597230
-8.5513439 10.25803 -44.477112 1251904090
69.075546 -31.847288 -117.00111 1231094032
17.260668 21.976542 -127.20489 1252834458
-18.803116 0.32361114 -31.781111 1241049368
72.026154 31.945824 -325.65195 1265495764
592.59894 150.3325 -778.67511 1261224099
54.336075 44.932224 -92.440758 1260482602
29.411913 -22.093449 -135.02649 1259904912
70.120567 -42.171425 -96.804832 1251117194
7.1497145 -2.4464488 -88.210274 1266679522
-17.630333 1.178095 -32.075077 1238413584
19.42268 2.7419851 -97.382805 1266679767
-15.021587 4.0345163 -27.055964 1262931632
-19.201427 -3.8678007 -35.750916 1237358736
-14.795236 3.2823968 -30.723583 1261616540
-35.623341 -44.275085 263.96362 1253228188
14.607363 -19.23913 -99.209984 1259574918
0.9515987 -10.790184 -56.5877 1239472416
10.191133 24.56303 -230.5974 1265494989
1.7767636 -24.84235 -125.91979 1240523072
2.0846848 -6.3847399 -69.195755 1259640972
85.760231 73.164558 -149.4807 1261738076
39.405041 17.600586 -194.61713 1265430224
-24.518488 -3.6254754 -41.341183 1242594424
-8.4917221 1.8825783 -38.331863 1262073240
149.5491 194.74516 -980.35187 1253756588
-9.0431843 5.1676364 -32.39378 1259441531
-13.117635 -5.4005461 -27.95536 1258653576
-84.927261 -49.585262 -184.23117 1238430160
-12.276209 -1.8821696 -39.511387 1247323364
-10.224899 3.935775 -26.155676 1247851684
32.214088 -16.050917 -39.105431 1263784360
74.96357 -45.211967 -103.30595 1251118210
-9.0488777 16.803328 -61.115025 1251774570
-23.470192 -60.491802 255.68794 1256779978
414.85928 -2.3263314 -595.72229 1242070120
-7.4174066 3.2882535 -25.917408 1244684476
75.015327 -34.473289 -126.58157 1232138480
-19.898344 -24.355042 135.60765 1253097630
-405.83051 -62.311043 766.75293 1241536572
272.68042 79.263237 -372.52835 1252445338
-10.584295 12.719661 -84.121513 1259835002
0.071775131 -2.1657581 -70.815155 1243642992
-9.3233337 4.963027 -49.147396 1248365796
34.491959 -32.89024 -170.28178 1259181444
-68.50399 -7.6160283 154.15582 1238931552
-16.690237 2.1148763 -31.695135 1242061192
13.253248 -10.697867 -92.62291 1260758421
-0.19754322 11.382874 -155.34924 1260822924
-16.215263 9.7478571 -31.404875 1259571045
-7.0477796 8.1589127 -53.413307 1259769724
23.239504 -12.047518 -118.23888 1252173438
-24.67486 -26.861689 43.982021 1263583358
30.394348 -0.59548295 -120.39738 1266679783
-5.6724591 2.6235111 -23.321266 1246269608
-21.302948 18.938959 -50.802128 1264768491
-11.403457 4.3492565 -26.687016 1246273668
-7.0900707 9.0785236 -24.654518 1264573882
-10.017212 5.0343332 -31.934116 1260559505
-2.5167658 2.2722852 -70.277245 1254009526
-17.770502 20.798746 91.831619 1243917604
-7.4301977 2.3961816 -28.676945 1262535073
-11.230327 1.601516 -21.791033 1254399808
136.14359 76.765251 -163.63312 1252163658
46.862427 54.730648 -303.63077 1253756588
51.692188 56.478779 -411.31989 1264246211
-134.26826 -24.657238 300.53482 1237889136
6.7035155 -12.923739 -113.17595 1260298381
-25.907539 -3.0399063 -44.703953 1235777616
216.4039 249.72701 -1380.5861 1253888682
-9.6147423 10.45647 -44.408741 1252561510
-14.618349 3.796519 -32.166172 1262406310
-68.162003 -62.216339 119.17989 1261076507
-15.073395 8.7578821 -31.157982 1259306689
13.504958 1.699327 -27.544096 1236310136
41.812603 38.892605 -86.544922 1265562843
-25.698538 -3.7932317 -43.375828 1234727016
31.008883 36.407078 -250.86188 1263391676
23.322117 -27.716749 -120.83185 1244180776
-21.304926 -31.188515 162.93562 1249936986
-19.674522 11.107278 -36.872738 1261872285
11.310319 12.757052 -21.397579 1262728310
0.085848354 -18.797186 -94.439758 1239994696
-12.362191 7.4833727 -55.878696 1247853700
-7.2750258 8.4565773 -55.351536 1259703931
20.969133 -25.92012 -134.32361 1259640711
28.136238 0.64730406 -116.24403 1264376260
-19.221661 1.4566032 -54.123165 1241043128
-15.158469 2.1280599 -29.836411 1255185752
-5.202167 7.9544201 -60.683868 1250057294
-16.137913 7.0640321 -53.702297 1244424348
18.589283 23.508379 -49.607189 1265827293
42.342968 -19.302811 -58.382164 1243121796
-46.430977 -26.814714 -100.06689 1238956504
2.864958 -6.2998104 -78.581779 1260100493
-16.685917 7.4871254 -31.235018 1257035418
-13.593307 5.2561874 -27.313992 1250852962
-13.134789 12.495033 -39.961777 1258388579
-22.701208 2.6601086 -35.664471 1252294986
-8.1692114 -0.38221109 18.675966 1235775528
-16.512682 1.6876889 -29.859818 1250583838
32.922852 -19.805197 -43.868824 1266679520
-18.770117 3.8603127 -29.749565 1243386908
-5.5886879 7.0888081 -60.57357 1250059326
-16.13018 9.5405569 -32.346134 1258714034
49.053677 46.028214 -88.438332 1265947026
-54.985489 -68.245865 382.33594 1253228188
33.289677 -6.3971491 -102.93175 1260297870
7.8867598 13.418657 -24.305185 1266679295
-15.557627 3.3829763 -33.139053 1261945505
-12.881097 6.1855545 14.846815 1262600087
-15.069121 4.8797617 -53.738911 1262666143
22.472433 1.0391651 -106.87688 1258587228
-29.548695 -5.1762619 -49.879246 1250197110
-11.072906 -2.0931323 -36.093201 1237350544
53.948608 -23.366568 -159.71324 1241813196
-7.2294855 10.856436 -51.466522 1258916474
54.550549 -47.561687 -249.51566 1259246721
-17.39311 -8.7602205 -59.911888 1255727306
-8.5479469 8.8436012 -37.28941 1254929030
-7.9640079 11.460402 -48.48299 1251641452
-21.076498 6.6666741 -32.36372 1259111509
-12.825942 0.46585315 -48.140266 1243643980
4.7838731 -13.445464 -64.352692 1259707272
-13.688081 13.057829 -41.878551 1257958586
-18.06673 7.3783617 -55.776398 1246535852
12.915229 -17.149527 -88.196503 1259574918
-12.027494 5.2166181 -47.35191 1248380060
-10.197329 -0.29643756 -41.229797 1248117904
85.98201 140.98094 -651.6701 1253096590
5.9824739 -14.523541 -126.13197 1260100748
-5.5800099 6.7993383 -59.778126 1250321470
43.013058 -20.073652 -51.627625 1264837048
-10.746152 -1.8045156 -44.605011 1260495750
32.771755 -7.3257623 -103.9672 1260166541
-6.6333413 1.9887484 -25.011663 1262403487
-18.871374 3.4965532 -30.711859 1252823806
215.75533 -21.169947 -322.12604 1232113728
1430.0935 311.43097 -2577.2246 1236832328
-6.3588853 1.6525017 -39.991222 1245219924
37.675274 -6.5656075 -118.13456 1260495247
-6.4733739 -0.19260497 -25.042027 1246803064
-15.88094 -1.3594675 -30.560905 1246008828
6.4259701 -13.347195 -95.391022 1259970446
-11.898228 4.9110117 -32.925793 1244956820
35.257133 -49.58337 -252.80701 1259574918
-5.3895049 16.618732 -57.286221 1253092488
-7.6462083 5.0702405 -27.182446 1250721368
90.630783 115.83639 -571.25281 1254020268
-7.8876953 -3.743186 -34.442673 1258916728
-20.066629 7.7436848 -48.174065 1247594636
-59.222065 -68.542679 116.90884 1259898963
90.815941 -14.077152 -189.13727 1240516784
-6.7592959 3.185019 -28.452951 1249161448
-21.296541 -2.9140646 -38.227417 1252958350
11.576761 -14.988772 -109.33448 1260100748
-12.490682 -5.4022765 -37.869854 1256911592
-21.348734 10.890273 -38.143024 1255984272
-5.7708526 2.5511286 -24.432362 1248909452
20.527775 27.516851 -172.57416 1253093010
87.253624 26.575727 -165.71402 1256788194
6.4384274 -1.0422417 -21.221216 1260626835
38.917446 -14.876736 -134.5143 1259707272
28.839178 -24.376188 -52.669209 1248405944
126.07554 -20.867908 -261.24496 1239466136
-13.022259 5.0357394 -26.658556 1250851946
-17.68042 1.4110875 -29.635435 1251372866
500.9978 -85.354324 -1532.9626 1260429454
47.10973 -23.301479 -59.66869 1259440484
37.422455 -12.088918 -108.18184 1242598576
-46.242107 -9.7352562 78.79734 1238417520
-163.66628 -35.459419 292.70386 1238407248
24.898455 1.6727844 -102.79853 1266613470
12.107622 0.18779333 58.425331 1246537844
22.826612 -27.312876 -137.98441 1259640965
-9.2324886 1.8387467 -40.010632 1260231548
-11.900193 -0.82549739 -32.456448 1235779728
-8.8506145 39.619026 -109.20722 1262338208
-6.4567933 0.8009364 -43.011005 1248380044
-15.618074 2.2315559 -28.76791 1249926424
-9.7768641 27.915819 -94.159302 1252040828
27.900288 -39.421677 -194.89478 1259180675
-10.582421 -4.3577023 -34.838425 1258227438
22.185465 -27.167528 -52.154877 1250730734
14.470095 -1.8256905 -98.35421 1266679784
-5.4961801 7.6838894 -62.216167 1250058816
62.579094 46.177185 -79.757332 1266669825
110.48774 -12.782778 -194.49683 1254250056
88.741959 23.18668 -152.28185 1256919262
-15.049476 5.0320563 -28.560875 1263719606
-39.279465 -7.3466077 64.309868 1236838488
11.132587 3.1551712 -36.377804 1253619860
61.290203 18.490778 -101.37186 1256392918
-6.5873828 3.0132418 -22.240459 1249695944
-13.089118 -2.236609 -56.921825 1260693643
34.36422 33.19772 -65.862183 1258384708
50.516159 52.783508 -94.267723 1262922858
19.571138 23.677876 -226.90366 1264245436
-16.870529 7.0363669 -59.317852 1248909452
-32.328518 -47.013145 78.012817 1266416853
35.509041 26.841471 -61.069027 1264971476
-2.3216901 -4.552433 8.2230921 1266483183
33.510792 -28.872654 -50.17038 1250727096
-12.533628 -2.1017945 -54.33794 1260693643
-73.118057 -13.861802 117.9431 1238419576
50.702446 8.5283661 -167.17696 1264640973
-11.88078 -1.0460401 -32.468941 1236306032
14.366498 -48.110939 -179.48251 1243922756
49.972244 -30.3515 -88.502289 1241802868
14.104553 -86.251778 -218.88701 1253495552
34.378811 -27.91283 -53.505474 1243916448
-15.719184 5.3741784 -28.531425 1263983293
-22.182423 14.912412 -78.002296 1250719828
-8.2762918 -4.3102107 -38.291954 1259245693
32.548828 -28.058853 -48.830376 1250596018
100.9166 27.345209 -172.55861 1256919258
20.795469 -24.784306 -48.368298 1248405944
-6.0171666 -0.8147406 -24.700918 1260429957
-11.824583 4.1543627 -25.997129 1236840464
-10.227579 3.0777643 -37.448647 1262403485
-8.4604282 9.6010141 -67.629463 1264176571
204.74699 -1219.9385 -3129.7905 1253495552
63.012737 21.083555 -222.94199 1263786434
-12.412968 2.8932002 -57.710327 1262139034
35.520359 -26.945488 -55.493732 1249451424
-7.6155415 5.1162801 -26.685087 1250983000
18.795057 -58.501282 -213.85687 1244712272
149.95221 36.608078 -281.27325 1238943864
136.61736 6.714128 -192.09401 1250464384
29.104334 -34.060337 -66.176811 1247617468
160.48344 43.127613 -273.45349 1256919258
-17.375994 3.1933565 -30.293917 1254134602
-286.76965 -21.931648 443.4631 1245491320
-17.588139 -2.4618657 -34.022728 1237878920
-6.0831742 0.14182037 -29.937515 1247328388
-37.186039 12.030393 -110.12955 1262666149
44.181469 -22.815434 -52.864525 1263850407
69.442284 18.379311 -112.05053 1256656086
-18.074415 -2.7134731 -35.435665 1237878920
-10.876792 -0.97553796 -29.576813 1236306032
38.82275 -12.732296 -110.52715 1242075312
-5.4804802 17.556635 -60.750526 1253355660
-12.402693 5.1092658 -34.412151 1244956820
-19.222572 -2.8690946 -37.613338 1237878920
36.639576 -10.241521 -105.07104 1244178600
47.073345 -19.257574 -61.936577 1244435560
38.881153 -12.858494 -124.11197 1248653488
19.449156 -13.858672 -67.53141 1242602736
21.297977 -15.590374 -73.860062 1243130124
-9.6164131 0.070116937 -29.310421 1242853452
-19.50968 -7.3376517 -44.402012 1234202776
22.323366 -26.247547 -51.014702 1247617468
3.8565764 -18.556677 -76.045845 1244711228
-30.432222 -12.621635 -70.123253 1216381056
11.886175 1.8331891 57.732414 1260562057
13.512431 -10.07391 -55.186489 1258655100
36.529266 -8.0276718 -115.14906 1260100748
30.196156 -29.819197 -53.757088 1250330282
158.47368 49.922012 -300.41107 1257050848
339.93155 79.847137 -640.74036 1238411360
37.797592 -10.240317 -117.67303 1260561299
59.189911 16.132816 -102.09164 1257050844
-16.676712 8.2421808 -32.832417 1260690298
5.3153934 -11.082406 -54.095734 1259641479
-15.641175 -7.8676338 -48.69186 1254937802
-27.993959 -4.0465341 -127.52082 1260562312
50.451424 -25.002554 -63.316444 1260559734
-10.348702 7.0668974 -57.741817 1249431688
-12.995265 -1.8452785 -57.225807 1260562311
-20.656578 -0.58415377 -86.809616 1247855752
-10.594154 6.2444654 -34.281094 1250326610
-468.5477 -90.697876 766.35785 1235787856
116.70213 -17.480764 -191.664 1235255384
-326.7186 -160.28444 397.49222 1263128747
58.186501 13.0375 -103.61913 1238411360
76.781364 57.796535 -132.40808 1264972243
-9.2087383 5.3693795 -29.482059 1250325072
-14.01988 6.5628924 -64.524094 1250717288
-12.038801 8.3014135 -67.953255 1248645252
-5.8427982 0.36173189 -32.616535 1246274672
9.652154 -12.090543 -52.611092 1243918636
43.379585 -19.72698 -60.094959 1244436596
-8.6643591 0.88187581 -21.855879 1242066016
-20.544691 -2.0132236 -43.814224 1247579672
-5.5597663 5.1677275 -45.681087 1250190402
-276.19745 -45.04459 600.88245 1233139936
57.251926 -100.28539 -430.78564 1245496640
13.665653 30.400242 -58.681622 1266482653
69.712669 43.220711 -88.942947 1263171840
-85.778297 151.03616 632.50208 1244971324
-14.311911 2.9383202 -83.17775 1245219924
19.283636 -34.765141 -149.67828 1245233484
158.90942 7.7623377 -222.94337 1250464384
-5.4787869 -1.6239141 -39.97427 1260232578
20.004213 -26.844599 -51.664452 1250075372
392.26147 36.298107 -580.65106 1242862692
433.65784 23.472988 -762.6405 1250330752
8.7439814 -2.3779626 -25.756479 1242600612
-9.9868908 7.1493917 -37.87965 1250851924
-56.025951 99.708481 414.62827 1244971324
20.290327 -46.500187 -178.2822 1244709196
117.14 83.116806 -172.34752 1261266945
80.181892 49.561745 -101.99405 1262844416
-9.5820494 0.35937905 -29.929768 1243380832
-78.466515 -70.418846 147.88072 1250324536
20.484056 19.82077 -111.26031 1254812348
-19.598476 10.045774 -34.431099 1251906124
50.745243 -25.191725 -62.883636 1262336145
41.964706 12.946405 -160.08308 1266022362
4.8217382 13.500764 -25.454809 1266614266
18.159122 -48.39119 -189.25742 1244973380
496.98059 108.61005 -869.50372 1239992432
0.18833159 -15.852508 61.903805 1251909254
-8.2740746 -3.7158694 -41.290367 1259377015
384.72565 75.223328 -650.8252 1236838488
-51.894772 -13.636142 104.94604 1239464048
40.616592 -20.217237 -49.66964 1261284227
75.213043 19.470331 -151.10979 1239464048
-9.8542624 1.3363875 -30.57188 1261745816
11.834195 -3.8019829 -34.526752 1242075312
-98.219032 -82.931053 186.13506 1265364950
-14.968972 -6.0810008 -39.103142 1207992448
33.079945 -8.9260178 -104.98795 1260890264
29.623024 -27.99752 -61.493698 1227936080
3.273001 -11.214451 -46.538246 1246286156
-7.7198262 20.945219 -62.881752 1260956310
-12.895971 20.470232 -67.389305 1256114322
-1351.0342 -286.94696 2082.0171 1255470796
-3.7265651 -3.0834427 6.3696694 1246277716
45.594036 -21.29406 -55.016167 1264771256
-6.0078425 -2.5589325 -30.732103 1259574908
-7.0331922 9.3393984 -45.10891 1259507324
-26.934086 -0.40936187 -121.84731 1246013548
4.4922419 -20.543941 -82.161469 1244973380
-30.171381 -57.86153 108.36247 1266679795
-9.5323772 4.9414735 -31.667751 1260230540
1.364108 -14.361224 -100.71797 1239466216
40.606617 39.263767 -83.303032 1247855712
18.62656 -23.034739 -46.075321 1248663864
-6.0623345 17.249338 -52.088337 1261153689
-6.2522001 3.9550695 -36.314213 1248907404
40.522243 -18.569881 -50.231152 1264574385
207.62572 0.84100372 -287.29544 1236852944
-9.5826159 4.1645908 -31.685383 1247846604
45.328926 -21.49935 -57.256271 1265099451
22.345903 -27.433107 -55.014179 1249717588
32.125912 -34.288132 -67.759232 1248145864
551.93762 34.498524 -789.48163 1251121796
-10.634611 4.8477693 -25.564238 1250193484
32.0658 -78.240433 -329.51965 1245235512
-78.870171 -73.687485 156.02589 1246804060
67.013741 55.473362 -363.84637 1263524290
8.9937296 -29.221132 -119.13305 1245761860
-17.803112 -6.8031397 -45.610451 1242326180
21.293245 -14.52194 -80.701035 1258588799
59.376289 16.625528 -106.53421 1257050338
-8.9180927 2.7613449 -25.816433 1262600356
-0.21722819 2.7918155 20.651236 1238413536
32.901642 13.792974 -111.19244 1255205052
74.190361 -23.377983 -94.660744 1235253360
-10.208 16.414091 -55.17466 1255456392
-4.313333 29.592749 -81.406517 1262404515
189.25349 21.125443 -244.08183 1258460279
24.53348 -29.390642 -59.50951 1247081768
-557.04987 -132.58836 903.22229 1256786138
-16.178177 11.549955 -59.809383 1251509344
8.0480442 -34.244213 -135.96791 1244973380
121.63612 -19.503401 -199.67966 1234729040
-15.710556 -0.23153247 -30.128922 1248370232
-6.3468637 3.3000128 -32.062775 1255977172
272.35159 30.416952 -350.54959 1258460279
-3.6187983 10.845771 -36.912067 1252172414
38.679501 -18.477854 -48.021374 1265560772
-8.2147722 4.5314627 -37.119198 1249694864
-7.2756791 4.4972425 -23.833019 1250458196
-3.8800545 10.842144 -32.513199 1261482909
75.917061 -23.361807 -96.34903 1235777616
30.336115 -31.01018 -63.245392 1247093176
36.200729 -27.975229 -129.9449 1243391260
-13.985062 4.9645424 -31.170332 1239998528
-5.7826133 2.8239861 -21.783123 1249430716
-5.7840428 2.8350048 -25.846771 1245741212
92.128387 -47.281742 -178.88429 1242614128
-7.3628302 2.3262796 -24.86919 1262863269
24.834515 -12.557817 -48.943939 1243404660
-11.041087 14.595216 -47.60651 1259241642
38.846581 -26.254103 -71.120506 1250070666
263.16287 -504.49829 -2007.3979 1244973388
-13.760515 2.6674335 -32.966686 1261615000
-13.141369 9.0087986 -33.528416 1255587462
-6.4473181 3.4750452 -28.336864 1247590532
38.675713 -10.609065 -122.74784 1260890264
11.868212 24.302984 -42.894207 1266482943
1.5399612 21.404718 -42.839005 1266679551
1.5315734 -3.701339 -49.088837 1260166288
-11.687775 0.13555534 -39.88398 1243908172
39.391876 -30.659245 -142.73184 1243916568
-1.6072114 46.596798 -115.45969 1263062184
-17.709944 12.021274 -42.438534 1255586960
19.030123 -15.364016 -68.272705 1242078488
-13.871292 -6.2001362 -39.5093 1254279872
28.300037 3.8682802 -117.63467 1266679005
-10.703175 7.5453906 -37.257206 1250587724
54.611599 -29.103317 -98.752823 1243405676
137.2605 -1.9933099 -181.60417 1238427920
-11.237327 -4.5791168 -45.995285 1259311740
-9.2060089 0.74011427 -38.894955 1243908164
7.8291621 5.932148 -12.325868 1262582528
-12.985247 -0.06556879 -29.39813 1247317520
140.88271 -42.746845 -220.18939 1226875040
-7.1861567 10.902148 -52.979099 1258982267
48.901119 -24.858887 -58.401127 1264442544
57.855202 -35.555668 -94.097626 1245780392
0.42854041 2.7464409 -5.1874352 1266679807
43.540264 -23.327238 -79.094505 1243405676
-5.9830532 6.0524054 -50.959961 1249427572
51.349102 40.299191 -78.719536 1263368704
4.4209614 53.948132 -108.35074 1266548735
-409.03101 0.58617687 551.43463 1236855008
83.831505 -43.743935 -139.32773 1244454252
-14.623143 -9.1380577 -67.545441 1237881000
-11.200991 5.7080584 -32.809929 1250194006
-0.52692914 19.846088 -50.123497 1262996392
30.402216 -3.865659 -111.99924 1260758922
298.86105 74.215912 -486.25027 1256655580
-23.184546 -16.492432 -64.881165 1227911456
61.141232 -32.579784 -109.54961 1243403620
-6.4752855 15.375795 -57.962124 1256908992
487.71768 45.888969 -667.23016 1247088828
-15.679237 17.841305 -47.622482 1264967150
61.237579 -9.1988039 -224.74277 1261087119
-17.848614 20.424116 -54.32531 1264967150
51.377865 -24.395805 -64.487183 1265823174
-857.59521 -67.404709 1151.4755 1250731654
46.686287 52.694149 -273.59656 1255072956
-42.577213 -71.709709 126.31996 1266679551
53.993275 11.368136 -149.24655 1251777158
0.14192478 1.2955059 -2.539674 1266153688
-10.232363 9.1230268 -29.387714 1258089650
-7.7496185 6.5659752 -54.676041 1250058816
-10.203337 3.1820436 -23.444704 1262601634
-28.731857 -15.455604 -69.021355 1234208920
37.047886 37.070599 -202.16202 1254812348
8.4858589 -20.194412 -83.811089 1245237572
9.3124971 20.095791 -38.888557 1265364940
-19.165979 2.8780367 -31.119871 1252163400
20.589739 -19.371902 -96.630043 1258720130
-17.182751 7.974762 -42.315266 1250061898
-15.371593 -7.5369406 -56.679333 1258324598
-16.193613 1.2853305 -30.987793 1246262784
134.05376 33.393005 -218.35689 1256655580
-88.35714 -22.02038 172.81731 1239988352
-51.391037 -11.780137 81.65609 1256391898
4.9677687 -12.564984 -52.035763 1244710208
42.952705 -26.493273 -71.428329 1246303656
-112.60489 -82.671364 192.16733 1263327418
-7.0538249 3.2887414 -27.857315 1250716294
-3.9974492 15.257577 -53.064636 1253357198
38.241261 -19.615679 -47.686844 1263520419
52.154205 -32.084599 -86.306023 1246566828
-21.077629 6.8560014 -42.881771 1263129010
-31.964634 18.527712 -70.309128 1254665342
11.703474 -0.81194723 52.541283 1243907152
26.051981 -25.911888 -57.358047 1251125456
7.7800107 239.35077 -847.60437 1254146204
43.45311 -20.486473 -55.6385 1265627079
69.297661 20.047791 -124.00843 1257050848
-18.011749 5.5871763 -46.415257 1262864297
13.700285 -3.8691504 -80.204178 1261021579
-12.054755 -6.677742 -49.981358 1234202696
-11.856755 -4.9521151 -42.444916 1258522230
-22.359354 -6.2177768 -43.808609 1237889216
-12.708363 10.098037 -35.700562 1255718538
33.604595 -26.82889 -54.660892 1250860254
11.831534 -1.6691878 -46.659653 1261152910
-15.637401 -1.2952961 -35.629223 1246267904
52.954979 -27.499842 -64.820602 1263521188
-1241.2474 -92.250557 1776.5028 1250859652
-33.286766 -32.59642 70.387268 1265036501
-20.269434 -7.5330992 -54.900997 1242064024
350.87787 89.171257 -697.13232 1238935664
109.45415 -18.925508 -210.58508 1236308072
724.09277 -122.95068 -1384.8105 1237356632
-127.92989 -9.0295877 159.07942 1250734210
-12.887433 20.783424 -55.364548 1263323307
42.847393 -26.679146 -75.773323 1244435608
-4.3643646 -0.96809322 11.970436 1252566666
95.949959 -32.312305 -157.15627 1236844904
-26.640524 -14.312642 -60.950294 1234206896
9.8988886 -2.9056857 -59.190041 1260890508
28.267817 10.07201 -58.925545 1257707240
58.608456 40.516373 -94.922806 1264115646
31.721991 50.102795 -103.66162 1266417637
-4.527369 17.69166 -60.600105 1253094540
-12.417134 7.6887407 -58.796585 1244957768
-4.1060853 -1.5006645 -23.503592 1259771264
18.241854 36.937412 -69.334053 1266679791
46.95192 -16.70936 -147.715 1257305814
40.011578 11.634162 -127.63378 1253887146
-10.017388 7.1436062 -62.248646 1250060364
-65.720108 -99.513062 206.08888 1266417638
-11.714323 -6.4531236 -48.38258 1234202696
-7.1131892 5.3513188 -46.955162 1250059840
74.864449 55.447853 -131.41629 1261485984
-15.045523 0.71060592 -38.204311 1247318556
-14.720972 13.106853 -65.37532 1252297310
11.815407 -10.689919 -49.024158 1244969256
-117.67488 -7.481626 146.39757 1250997382
-5.0159764 5.8399673 -37.019863 1259507324
52.474087 17.776875 -107.6258 1257314020
-17.971628 0.38935038 -93.551826 1248115860
-13.010594 3.2413893 -33.234097 1262141083
-10.939075 -0.90964448 -24.499384 1246529000
-180.32787 -95.178459 235.29729 1263327667
32.870049 37.454956 -64.379189 1259898449
57.584988 28.838072 -72.722412 1263721656
-65.723419 78.059258 323.61292 1243131176
88.497787 -27.483921 -119.0138 1234724976
-7.2233472 5.2799659 -41.749866 1242592296
20.020334 -3.3002989 -57.232399 1243650196
153.30141 82.294174 -200.64319 1263785907
-6.3289165 1.0581454 -45.581009 1247064184
60.482513 21.086159 -123.53759 1257314020
-65.526146 -28.230421 142.93451 1257445606
9.0288334 -6.8620658 -102.27812 1260627343
-43.513992 -10.090055 -71.016373 1261676176
-69.497353 -44.947971 99.293327 1257288264
30.618931 3.3839347 -38.662296 1258526325
-15.621658 3.1070988 -33.714241 1261878944
677.40985 57.462402 -900.42194 1250862722
-15.513694 5.7103214 -29.447023 1240526848
-98.484642 -23.905293 157.80122 1256524504
-98.690147 -65.553581 140.57501 1260213760
39.570595 -4.6965361 -130.62772 1260692881
6.6903543 21.29821 -39.521049 1266614269
378.12851 30.496321 -526.87329 1250598532
-15.784239 2.7967763 -28.218019 1258712521
84.727638 5.1943703 -105.37379 1251260044
-12.442396 5.8723469 -27.227669 1252033622
-6.6254444 3.8508704 -33.730297 1248902300
202.14104 17.255417 -269.84995 1250994308
201.20087 -166.42522 -781.27539 1245232420
38.613361 -20.139219 -47.765575 1262204559
-23.450663 2.9338403 -38.049923 1246007784
-14.902587 4.8459935 -47.939137 1262535073
-6.4551692 -2.4375107 -39.491962 1259705980
-11.854111 -1.0930015 -26.411997 1242845612
31.082813 14.365468 -59.973518 1255600320
-16.299019 7.3640141 -35.413506 1251377746
-52.17168 -12.503407 82.702637 1256524504
-11.742641 6.9371362 -60.55233 1249691816
18.601847 28.509789 -59.551533 1266417638
24.142588 1.741003 -70.263474 1246806188
-12.625459 4.6335049 -23.755894 1246546016
67.190361 7.2231283 -83.741776 1258526072
267.32254 36.161758 -406.7811 1239472264
87.007881 57.945518 -128.03134 1258382894
-52.173405 -20.544512 116.06806 1257445606
23.390877 -4.306778 -65.816681 1243389084
-17.112349 -0.2774367 -32.033985 1248633404
-19.558863 -0.57097495 -35.03495 1247586792
-8.0369377 9.0372972 -32.229595 1253350520
-17.291433 -6.3532119 -41.361423 1233146024
-15.876266 11.388944 -38.396885 1257952518
77.019295 43.63673 -335.03369 1263063479
-21.00672 55.443657 177.25145 1247875488
-9.6171732 2.9668205 -23.946827 1262602148
-36.540142 -12.84243 -75.502922 1238413536
-49.510147 -41.079792 92.788643 1263590076
9.1993494 25.986652 -50.217407 1264772549
-29.877453 -15.755673 -68.796127 1232134432
-266.15674 -129.34901 317.98904 1262865575
12.39465 -11.277183 -51.353981 1244180776
249.63618 26.273737 -306.89975 1258460279
104.23228 51.364479 -126.09669 1262996391
21.774038 -27.650002 -45.855614 1248662924
-58.578491 -22.311766 131.05743 1257575654
-9.6346607 14.808583 -53.440079 1252300404
-8.9709454 6.7139978 -53.053299 1242062872
-17.738741 9.410593 -33.904835 1258320729
-2.8555143 -32.493332 118.13662 1253884058
-3.9957287 3.3932724 -16.80694 1252297310
-13.539226 -0.88261795 -29.838856 1249421860
-11.610064 5.6114144 -29.263298 1250193484
-11.843246 5.785233 -30.008076 1250193484
-10.352795 16.555424 -43.976959 1263323307
-12.924575 1.1048737 -29.642145 1250319622
30.164555 -12.095268 -92.224113 1216413792
73.671356 54.631588 -124.53053 1264708557
236.05051 -94.643959 -428.00247 1240537632
-16.193195 2.626868 -29.31176 1256500088
-15.923782 20.562151 -72.476212 1257954132
44.729702 16.160143 -146.77315 1254547122
-16.575808 3.0318248 -41.369129 1261614999
-129.14563 -56.698063 238.64395 1255074490
333.48499 33.979996 -403.48993 1258460279
-9.906641 12.483562 -43.754551 1255713064
-14.639618 6.87925 -33.862076 1250982482
5.4410195 53.504398 -135.15311 1257826476
-9.9012585 2.9996519 -36.146938 1262403485
67.801102 27.862244 -123.90746 1255340230
42.588448 -26.79423 -78.176613 1244975444
11.441334 -2.6209879 -33.598892 1244179620
73.436317 -28.51519 -86.918419 1252564608
-10.457493 5.6208844 -38.587826 1259046264
1.4146651 -22.026323 -67.106674 1251260658
-84.634857 -42.760029 -186.07828 1234735328
-5.8227329 6.3619509 -22.552275 1253617276
-13.256501 30.40584 -90.683403 1260955798
31.275234 -22.448563 -367.6561 1261021071
-5.5272989 -0.38106057 -38.042412 1260890254
22.685474 -18.568537 -77.751526 1243397428
-37.34206 -30.752947 69.443581 1263590076
-437.32034 -35.69701 593.35449 1250600068
58.138145 1.8393848 -71.920868 1251915928
-20.000551 -9.3491764 -49.21843 1254147778
53.072777 26.520313 -64.913551 1262468506
-131.09158 -57.741978 242.30566 1255206584
-69.23394 13.151358 141.54388 1237358720
-871.86053 -194.58565 1073.1906 1260764316
-212.77257 -88.43644 359.9856 1257706202
10.583896 -1.3121678 -98.34227 1266548452
59.880562 4.2674847 -78.253181 1250994826
-37.198196 -7.1141529 -59.123978 1261545365
-8.6579714 5.8372798 -54.279877 1249429632
11.015618 47.699528 -112.15253 1262734761
-135.68155 -54.032566 231.32181 1254285482
-6.3666449 8.1227369 -26.217531 1261084615
91.049377 -35.861164 -142.82019 1241072200
-11.399571 7.9858861 -27.108271 1255717094
-8.8944788 -15.944512 64.957802 1255598270
-11.986367 5.3680024 -25.681362 1251377746
-240.10558 -15.341026 287.92517 1252313242
47.731205 -24.274132 -61.355038 1261874567
-32.272533 -3.3223379 -47.110332 1259900805
44.026279 37.409122 -71.063057 1263173120
-12.212192 0.50173306 -26.324965 1248112172
62.745495 1.8647194 -77.676712 1251915928
-19.204306 1.0392858 -30.643597 1245756620
-125.58976 -51.158516 213.05933 1254416552
13.772215 30.250748 -110.68584 1255468734
-87.689545 -61.133877 347.79974 1257312480
-11.843218 2.2430837 -29.000494 1261680792
-53.188717 -23.129478 97.046135 1255074490
63.553017 4.5530767 -82.945747 1251258508
14.982975 45.724075 -85.894676 1266679804
-2.2208996 -17.533287 -46.300625 1246822800
519.18286 101.97225 -693.57446 1258592379
-13.560437 6.6703424 -67.720947 1249691816
72.940262 39.428558 -97.337967 1263656377
-121.58904 -48.13945 207.33501 1254548654
6.5659409 -5.0374265 -64.463112 1260561807
